# .PCD v0.7 - Point Cloud Data file format
VERSION 0.7
FIELDS x y z
SIZE 4 4 4
TYPE F F F
COUNT 1 1 1
WIDTH 541
HEIGHT 1
VIEWPOINT 0 0 0 1 0 0 0
POINTS 541
DATA ascii
-60.809982 -53.190697 -1.1723036
-51.852566 -52.820133 -2.4830902
-37.439346 -52.460094 -1.9772742
-22.893265 -52.59309 -2.0937312
-7.6481309 -52.513172 -1.97647
7.2010546 -52.523678 -2.0390093
22.649887 -52.657665 -2.0438352
37.148106 -51.890343 -1.8943644
51.367519 -50.967918 -1.5219249
62.567635 -52.962364 -1.0758559
-61.276512 -36.775059 -1.4139391
-51.924114 -37.283611 -2.472805
-37.906376 -37.391197 -2.1293533
-22.667847 -38.147205 -2.0880213
-7.7297702 -37.877407 -2.266999
7.4710441 -38.026363 -1.995679
22.392931 -38.353786 -1.9809749
37.348038 -37.658081 -2.036577
51.270546 -37.449028 -1.7231027
61.22298 -38.541439 -0.96312332
-61.294914 -21.827307 -1.5640404
-51.49683 -22.647705 -2.474808
-38.376499 -22.675266 -2.1928051
-23.181057 -22.66238 -2.0755179
-7.7581549 -22.77603 -2.2085917
6.8621025 -23.044613 -2.1325731
22.455679 -22.431768 -2.1821854
37.471294 -22.524958 -1.9316567
51.593964 -22.900059 -2.0836999
61.416759 -24.184448 -0.86952317
-61.200279 -6.7832894 -1.0884302
-52.465652 -7.9787865 -2.3561299
-38.608822 -7.5260248 -2.1519451
-23.593323 -7.4996972 -2.2813308
-8.1209478 -7.951005 -2.0914862
7.422884 -8.1098213 -2.0959904
22.098944 -7.4249535 -2.2069528
37.572182 -7.7178006 -2.2501476
52.777294 -8.1944113 -2.0474815
62.746044 -7.8359337 -1.367247
-62.111336 6.8530869 -1.6906743
-52.778263 7.1285133 -2.2565589
-38.593472 7.4792128 -2.0783687
-23.731085 7.1085858 -2.3309796
-8.4712334 7.513453 -2.3320618
7.1398506 7.3333235 -1.9057219
21.935379 7.0575686 -2.1313372
37.269478 7.602252 -2.1259716
53.483135 6.8953724 -2.4422159
62.141472 8.9679832 -1.6448729
-61.93996 21.445908 -1.3787451
-52.34008 22.570435 -2.1348031
-38.136028 22.286215 -2.1034145
-23.16469 22.338268 -2.059999
-7.6949368 21.915514 -1.9078982
7.7725868 22.617645 -2.2758255
22.720095 22.677818 -2.1387484
37.091831 22.289694 -2.0238247
52.501858 21.963034 -2.0212095
61.864143 20.256613 -2.3817635
-61.870632 38.87936 -1.2971705
-52.055523 37.100376 -1.7067711
-37.849133 37.130814 -2.1598625
-22.848661 37.822132 -1.8864063
-8.1689348 36.827988 -2.1716704
7.2113791 37.006481 -2.1821709
22.271238 37.390347 -2.0885127
37.378716 36.943928 -1.8974321
52.137962 36.9426 -2.2360725
61.971008 38.355301 -2.7982891
-61.982838 50.356171 -0.75652504
-52.107502 51.252895 -1.3859378
-37.902069 51.667923 -1.680056
-23.364143 52.026455 -2.0466206
-8.6702452 52.318481 -2.0364096
7.2089405 52.009335 -1.9677757
22.208601 52.011124 -2.3007958
37.680698 51.954887 -2.655786
51.948009 51.266529 -2.4237671
62.327564 52.33778 -2.6720772
-51.624989 61.508045 -1.1226177
-38.295914 61.689568 -1.5245049
-22.81978 62.101559 -1.6587493
-7.716033 61.883976 -2.3700922
8.0659285 61.69434 -2.2718661
23.624281 61.740803 -2.4398279
38.347038 62.014236 -2.4792073
52.284592 62.197624 -2.6563334
62.365601 62.725185 -4.5118384
-46.536842 -60.456043 10.18035
-37.229473 -60.456055 10.18035
-21.717194 -60.456051 10.180351
-6.2049112 -60.456055 10.18035
6.204917 -60.456047 10.18035
21.717194 -60.456055 10.180351
37.229481 -60.456043 10.18035
-61.456085 -52.731594 8.3027916
-53.061115 -55.927204 7.1994438
-37.371647 -57.025375 6.6577411
-22.556919 -57.065739 6.9826179
-7.9298425 -56.899071 6.8353581
8.0828133 -56.532814 6.6243062
22.513422 -56.674702 7.0532303
37.505135 -56.710938 6.5291953
52.658039 -55.643234 6.0797405
62.180412 -52.993462 7.8486075
-61.400059 -37.594746 7.5282812
-55.985294 -36.315331 5.785006
-36.987827 -37.722008 2.5190403
-22.227268 -38.113605 2.6119645
-7.4963965 -37.815937 2.4013534
8.5827637 -37.868351 2.5249848
22.821878 -37.83152 2.0074632
37.681507 -37.023659 2.0199597
53.843956 -37.315125 3.7638514
62.040939 -36.849636 8.2051401
-61.45649 -22.102371 7.995657
-55.634586 -22.567686 5.8243904
-37.759834 -22.258595 2.5957453
-22.725771 -22.252802 2.5498035
-7.372108 -22.883062 1.9237607
7.7716093 -23.564375 2.4403512
22.142874 -22.251011 2.2022426
37.896019 -22.645697 2.0638649
53.568642 -22.484278 3.8086267
61.737286 -22.292057 7.732192
-61.66349 -7.1285305 7.8448253
-55.999573 -8.2694712 5.7254567
-37.897507 -7.3967214 2.5611534
-24.207581 -6.4237208 2.099792
-8.6345253 -7.838779 2.3274617
8.1275043 -8.6292143 2.4190817
22.685871 -7.153163 2.0541978
37.838043 -7.086812 2.2400556
54.27039 -7.4706059 4.4091434
61.697556 -7.8617864 7.7202878
-61.767204 7.0962496 7.8123121
-55.998894 7.8638773 5.3387032
-38.050411 8.4085684 2.1004426
-24.167776 8.1212959 2.5289948
-8.4651356 8.0690145 2.2748075
6.5373478 7.3169575 2.1478002
19.645378 7.9323192 2.3626842
36.364876 7.825336 2.3340604
54.316135 7.4641323 4.2509584
61.612759 7.3205352 7.756062
-61.873585 20.996496 7.6132736
-54.841587 21.424112 5.83708
-33.088409 16.914076 2.5316911
-20.940413 18.911306 2.3558652
-9.1658859 19.852371 2.6534126
8.3917322 18.628803 2.3159478
19.853689 18.579105 2.2418225
35.164616 18.919285 2.2088394
52.221024 20.44878 4.31042
61.462345 21.841749 8.1932411
-61.57494 36.469597 7.8072152
-55.22047 36.302437 6.01578
-31.486128 34.811954 2.1030848
-21.559834 34.613804 2.1056476
-9.6838245 35.430622 2.2997425
8.2212458 35.451309 2.3256028
21.865192 34.951813 2.1500525
34.085751 35.203491 2.1631169
52.721958 36.873188 4.552247
61.0765 37.037998 8.6979685
-61.096802 51.717949 8.9704123
-56.754852 52.433319 6.4497118
-35.587482 51.310921 1.7272111
-19.113541 50.55442 1.7381963
-7.1587415 51.084061 1.8494076
6.9237742 51.360615 1.6902726
19.805176 50.382828 1.7967442
35.744324 50.441013 1.8163331
53.122276 51.203468 4.2211928
60.79982 51.328545 8.1808634
-62.43251 60.909504 7.4631343
-52.447212 61.800964 7.4658308
-37.23098 61.14756 7.4992695
-21.178228 60.5844 7.3709841
-6.7053833 60.929996 7.0337362
7.3002863 60.918976 7.4517918
20.658276 60.382027 7.6432476
36.42606 60.693737 7.9804983
52.320175 60.508537 7.9520931
60.932209 61.937927 8.7602501
-46.536842 -60.456043 22.590176
-37.229469 -60.456055 22.590176
-21.717194 -60.456051 22.590174
-6.2049112 -60.456055 22.590176
6.204917 -60.456047 22.590176
21.717194 -60.456055 22.590174
37.229481 -60.456047 22.590176
-61.834969 -52.226341 23.154474
-52.080338 -57.494347 22.189194
-37.463047 -58.451874 22.534389
-22.433506 -58.394028 22.695545
-7.559021 -58.380077 21.98428
7.5596313 -58.379711 21.984028
22.430803 -58.394211 22.696579
37.539284 -58.4389 22.521521
52.139072 -57.412483 22.413404
61.917927 -52.585579 22.225361
-61.734386 -37.428032 22.377533
-58.55452 -36.910633 22.728045
57.967522 -36.050045 23.139404
61.929913 -37.459297 22.643824
-61.779118 -22.420933 22.400522
-58.178894 -22.072453 22.644833
-22.808659 -18.724592 26.145086
-7.6709876 -18.336597 25.02948
6.3893466 -18.23315 24.086008
17.39422 -18.702723 24.128462
58.175266 -21.871601 22.807377
61.736889 -22.510702 22.399271
-61.834354 -7.5946121 22.307701
-58.279839 -7.2130013 21.865154
-30.657351 -9.1229725 24.477676
-21.831219 -6.8889527 25.50547
-7.3689556 -6.9695616 24.913322
7.7661743 -6.6298323 24.310099
18.145718 -7.7510939 24.032145
57.916897 -7.4028363 23.143047
61.802883 -7.7009048 22.409821
-61.720947 7.6081548 22.404963
-58.392933 6.4477916 21.515331
-22.594086 7.5197568 26.046679
-7.9336467 7.6033373 25.573013
7.4559708 7.532783 24.78319
17.925331 7.4200306 25.249031
58.062157 7.972446 22.091183
61.655609 7.1118999 22.511276
-61.512669 23.044731 22.275688
-58.280193 22.14892 21.765665
-22.217081 21.808298 27.099783
-6.9322705 22.860312 26.640078
6.9670353 22.026711 25.808838
17.280918 22.177031 25.703268
58.175694 22.169533 22.8822
61.601856 22.086075 22.866779
-61.505028 37.151672 22.039749
-58.293007 38.050671 22.368612
-20.96467 30.029837 26.417854
-5.2411699 30.029839 26.417845
5.2411695 30.029842 26.417841
15.72351 30.029842 26.417839
58.349304 37.361446 23.215542
61.344368 37.261551 22.742311
-61.403744 51.928852 22.117397
-58.422791 52.706371 22.729511
58.385601 52.457809 22.755219
60.917786 52.402782 22.700937
-61.425365 62.260365 28.09845
-50.623081 60.968422 21.999311
-36.939445 60.547905 22.346107
-22.204405 60.674522 21.82196
-8.383955 60.478226 21.606874
7.5511403 60.339031 21.626905
22.681057 60.429379 21.825741
37.449913 60.281483 22.348457
50.234615 59.72295 21.678192
60.938694 62.090321 22.43038
-46.536846 -60.456043 38.102455
-37.229473 -60.456055 38.102459
-21.717192 -60.456047 38.102455
-6.2049108 -60.456055 38.102459
6.2049165 -60.456051 38.102459
21.717194 -60.456055 38.102459
37.229477 -60.456051 38.102459
-61.753769 -53.229912 37.323536
-51.991646 -57.62582 37.754623
-37.094616 -58.573986 38.203812
-22.187445 -58.345074 37.642967
-7.6297889 -58.466991 37.545742
7.6293726 -58.467289 37.545792
22.188442 -58.344963 37.643219
37.094421 -58.573971 38.204243
51.938541 -57.773495 37.594505
61.807892 -53.023952 37.343906
-61.82148 -37.843971 37.338928
-58.150562 -36.898052 38.333759
58.206043 -37.786613 38.523785
61.791767 -37.857819 37.270279
-61.736881 -22.223682 37.316994
-58.137737 -21.868725 36.683403
-30.904623 -17.681646 36.70409
-21.50281 -20.24851 38.002937
-7.3360281 -20.652628 37.076038
7.9211264 -20.636917 37.135101
18.053232 -19.604343 34.583054
58.138283 -21.874422 37.833214
61.812248 -22.220402 37.517651
-61.697571 -7.4136887 37.958691
-58.322857 -7.1947145 37.54554
-30.397221 -7.8102617 35.792965
-28.836477 -6.6196218 41.932995
21.297112 -7.0813136 34.399433
58.510891 -6.5198569 36.862541
61.66275 -7.2582412 37.917091
-61.612904 7.0401015 37.962185
-58.305244 7.2295337 36.828362
-30.016479 0.47158605 35.593113
-28.737621 8.9545641 40.040096
20.715405 7.4119835 36.529797
58.275116 6.8424282 37.831039
61.618908 7.1344194 37.064621
-61.531101 22.354242 37.686474
-58.1077 22.37023 37.111149
-24.108274 26.702318 38.35944
-5.6748595 28.821276 36.313816
5.0875168 29.286123 37.120998
19.082182 24.516693 36.642406
58.101006 22.456882 37.250275
61.6003 22.826891 37.908936
-61.416271 37.440868 37.886326
-58.204765 37.868698 37.844585
58.205158 38.086975 37.982311
61.342598 37.461609 37.354675
-60.9893 52.082451 37.361095
-58.37302 52.120914 37.585346
58.365788 52.345119 37.656548
61.116371 52.133499 37.581257
-60.918964 61.646282 39.802593
-51.978458 61.875217 37.545868
-37.557003 61.967888 37.807148
-22.461615 62.079338 37.03265
-7.097405 61.926525 37.418388
7.0971837 61.926422 37.417599
22.46199 62.079365 37.03241
37.556885 61.96788 37.806797
51.6506 61.832893 37.346893
61.49712 62.161198 41.187538
-46.536842 -60.456043 53.614738
-37.229469 -60.456055 53.614738
-21.717194 -60.456051 53.614735
-6.2049112 -60.456055 53.614738
6.204917 -60.456047 53.614738
21.717194 -60.456055 53.614735
37.229481 -60.456047 53.614738
-61.993027 -52.506924 52.410316
-52.469959 -57.598011 52.470234
-37.114304 -58.368847 52.441723
-22.609484 -58.348175 52.654427
-7.7670536 -58.290646 52.684334
7.7669854 -58.290562 52.684048
22.611656 -58.348225 52.654926
37.010208 -58.382145 52.492298
52.532036 -57.355286 52.515499
61.692619 -51.979233 52.709179
-61.950878 -37.226341 52.679905
-57.71933 -36.460033 52.741032
58.538448 -36.531387 52.442768
61.676697 -37.40683 52.147377
-61.818069 -22.366333 52.599918
-58.129887 -21.474335 51.303265
-30.530817 -18.910011 55.973408
-23.215538 -20.370459 53.998302
-7.7293434 -20.946966 52.220428
7.6693163 -20.935232 52.027
20.730618 -19.178827 52.344082
58.226128 -21.773634 52.142414
61.722446 -22.414869 52.838856
-61.765671 -7.6530132 52.631207
-58.047371 -6.9813137 52.32077
-30.455963 -8.8031311 51.033466
-28.713293 -7.915349 54.141407
21.161573 -8.1524887 50.692455
58.31081 -7.8457556 52.433258
61.915836 -7.3739829 52.569557
-61.596508 7.4729247 52.380421
-57.935768 7.3543401 52.604431
-30.132269 3.5648644 48.629345
-29.842348 5.7187796 53.763737
21.462301 5.696456 52.17733
58.317463 6.8159747 52.581928
61.90723 7.7879419 51.916683
-61.683014 22.037123 52.388245
-57.987545 21.910521 52.030121
-25.203848 25.701199 53.906601
-7.7077727 28.975462 52.865589
7.3959742 28.936287 52.672153
21.251009 24.332989 52.420971
58.195595 21.742056 52.373741
61.692646 22.377388 52.222748
-61.197044 37.185783 52.860477
-58.309223 37.155827 52.45015
58.246613 37.626274 52.457603
61.630806 37.006405 52.224796
-60.876762 51.927711 52.804016
-58.559479 52.731358 51.569839
58.480515 53.053551 52.945244
61.334618 51.670162 52.2887
-60.936497 61.923927 53.665718
-49.295231 59.498756 51.233387
-38.386848 59.595505 51.063175
-21.46344 60.570854 51.637989
-6.3725567 59.377811 51.310684
8.6544752 59.358013 51.255199
20.805048 60.835644 51.594921
35.628216 59.413555 51.085682
48.727962 58.912807 50.916641
62.922958 60.935558 58.467922
-46.536842 -60.456043 66.024559
-37.229469 -60.456055 66.024559
-21.717192 -60.456051 66.024567
-6.2049112 -60.456055 66.024559
6.204917 -60.456047 66.024559
21.717194 -60.456055 66.024567
37.229481 -60.456047 66.024559
-62.311375 -53.084564 65.819206
-52.121571 -53.370632 68.347755
-37.603859 -54.466496 68.158043
-22.486948 -54.504105 68.350876
-7.6832452 -54.351288 68.558167
7.7498789 -54.468056 68.709686
22.638374 -54.769283 68.397118
37.54237 -54.782513 68.251991
52.498459 -54.0811 68.883339
61.274826 -53.169559 66.039551
-62.026043 -36.929043 65.48616
-51.609203 -37.842739 69.558861
-37.582241 -37.695248 70.193344
-22.588715 -38.306705 70.432671
-7.678339 -38.253422 70.495033
7.9992847 -38.119724 70.685005
22.820206 -38.267628 71.01516
37.045345 -37.582542 70.80426
52.441696 -36.820126 69.605141
61.332314 -37.309452 66.349106
-61.695938 -22.627098 65.783401
-52.02977 -21.498018 68.884804
-36.88316 -21.041075 69.546242
-22.758574 -22.292849 69.051567
-4.6602387 -21.475277 67.540283
5.1040444 -23.648199 68.622231
23.135881 -23.41577 70.017609
37.6329 -23.152109 70.988182
52.925312 -23.008499 69.336006
61.367443 -21.899929 66.552277
-60.271931 -7.3307877 65.408005
-51.118359 -7.238585 68.577126
-35.001976 -7.3173189 69.128723
-29.82015 -5.650218 66.94928
25.228895 -5.4978471 67.682823
35.930843 -6.2639704 70.288551
52.225864 -6.8168511 68.84848
61.389793 -7.2466083 65.786957
-61.75108 7.1327205 65.403114
-52.884808 7.0465174 68.925415
-36.756588 7.088819 69.281616
-28.949173 6.868968 67.221039
25.640791 7.1761103 68.139763
36.56472 7.4610891 70.465584
53.667751 7.3743801 68.998169
61.631466 6.8009577 65.542587
-61.482281 21.652697 65.966019
-50.624073 21.827536 68.067024
-36.49078 21.648821 68.523857
-24.943148 25.264654 67.543571
-7.5818934 28.591135 67.305305
7.5918083 28.615337 67.206078
24.654186 22.729115 68.220695
36.892502 19.08721 70.145554
52.362007 21.538807 68.89679
61.689911 21.1241 65.393539
-61.258438 37.095367 64.993469
-50.49712 36.327206 67.919609
-35.354927 35.431587 67.788475
-20.983381 36.350643 68.414818
-6.4738297 36.618591 68.275742
6.7204542 36.64127 68.748779
20.771381 37.065022 68.871391
36.231991 36.437241 68.954681
53.008907 37.312908 68.262703
61.701477 37.138508 65.989662
-61.05365 51.512573 66.022141
-51.193947 50.024349 68.092918
-35.499229 48.627228 68.064026
-21.362888 47.124954 67.845459
-4.8746758 48.343712 68.713181
6.1908073 48.896381 68.715004
19.188684 47.190254 68.03167
35.65596 48.665989 68.710838
53.594608 51.479801 68.579498
61.432266 51.251587 65.660759
-53.002174 51.754738 65.394524
-49.750317 59.463364 65.17955
-33.290459 59.448219 64.664375
-21.41436 60.796452 64.257248
-8.3443117 60.568584 65.515198
5.4319305 60.642166 65.456245
21.41387 61.313644 64.779907
37.360527 60.567631 65.312668
52.42017 60.58997 66.481232
61.942055 60.883453 66.605804
-52.426975 -47.07378 75.515533
-32.991943 -47.233582 75.12841
-47.567696 -33.100159 75.438988
-38.905846 -36.276077 75.220612
-18.298939 -35.350212 75.113632
-48.042778 -21.87166 75.476433
-32.066452 -21.181427 75.029236
-25.317917 -21.25153 75.224289
-2.7341213 -24.243546 75.076218
-54.129128 -7.7265248 75.741547
-35.308712 -5.1850958 75.458466
46.180851 -10.515405 75.523773
-61.281532 14.973071 75.774666
-54.715153 5.8185821 75.785889
-34.602489 7.1605635 75.594872
-25.430052 10.235999 75.503357
29.296396 8.3798523 75.76825
34.412186 11.224236 75.143372
52.938217 9.8094444 75.067566
-60.189968 15.065807 76.140808
-53.361214 24.249134 76.497452
-35.528305 20.424702 75.531502
-25.617908 27.467205 76.401962
-3.2097192 28.757589 76.156281
36.660347 23.581856 75.496841
49.315353 25.448666 75.362778
-60.443317 42.574299 77.097809
-53.123814 40.419327 76.750488
-37.570011 34.109608 75.59124
-25.80934 36.39204 75.975426
-5.5384254 37.552494 75.687256
7.8767829 34.247761 76.220512
18.197935 36.892113 75.584633
34.66254 40.889145 75.713936
-49.703434 56.25713 77.356262
-36.685333 52.443073 76.111305
-20.249237 47.896538 75.865524
-3.7425673 51.412296 75.570236
11.55871 49.838844 75.668335
19.881104 52.708012 75.95253
31.834476 49.776829 76.063766
-62.291721 62.89571 76.521301
-49.156666 62.610443 76.511383
-26.194519 61.668701 75.659615
-6.4616756 60.84737 76.348328
9.8592014 61.721157 75.490456
