# .PCD v0.7 - Point Cloud Data file format
VERSION 0.7
FIELDS x y z
SIZE 4 4 4
TYPE F F F
COUNT 1 1 1
WIDTH 565
HEIGHT 1
VIEWPOINT 0 0 0 1 0 0 0
POINTS 565
DATA ascii
-63.494644 -62.849915 -1.8292978
-52.761612 -62.493431 -2.4699953
-37.321247 -62.66407 -1.8292304
-23.019711 -62.705177 -2.0285811
-7.5421491 -62.737827 -1.7629936
6.1409802 -62.388855 -1.6512617
21.869406 -62.560425 -1.6383994
35.716396 -62.355747 -1.8872249
51.152565 -61.823463 -1.1143963
63.710442 -63.577034 -0.18606949
-64.405861 -53.162369 -2.4497492
-51.9739 -51.62495 -2.6090956
-38.111816 -52.34454 -2.3864381
-23.12002 -52.655109 -2.1650922
-7.9777708 -52.250698 -2.279608
7.3225098 -52.387611 -2.1812224
22.707352 -52.356651 -2.4789968
38.026306 -52.584255 -2.195152
51.964462 -52.530777 -2.0028443
63.629536 -52.140617 -1.4712005
-64.552437 -37.98576 -2.0960903
-52.93042 -37.64864 -2.5955296
-38.06245 -37.885342 -2.4194229
-23.72123 -38.145485 -2.4676898
-7.7792149 -37.391422 -2.3606865
7.6961865 -37.377682 -2.3666863
23.113846 -37.922523 -2.4632995
37.520126 -38.188606 -2.035517
52.561184 -37.618828 -2.1175597
64.359657 -37.902306 -1.8285525
-64.020447 -22.560257 -1.8261189
-52.147484 -22.787037 -2.4685028
-38.058712 -22.752399 -2.2831159
-24.018753 -22.792501 -2.4713686
-7.8528223 -22.218323 -2.2809455
8.3143301 -22.562162 -2.3135226
23.654543 -22.477921 -2.6703193
37.974766 -22.499229 -2.4309764
52.647148 -22.217024 -1.9491847
63.852879 -22.344929 -1.702431
-63.429455 -7.7439451 -1.9924258
-52.030632 -7.438694 -2.4779387
-37.638809 -7.8826141 -2.5108428
-23.909704 -7.7335925 -2.5638521
-8.7564945 -6.690639 -2.4363227
7.6020622 -7.3242297 -2.2625453
23.172586 -7.1687493 -2.7664709
36.866596 -7.2293954 -2.2482996
51.023811 -7.3545694 -1.9831759
63.863682 -7.8606615 -2.2649515
-63.446186 8.0261078 -1.888971
-52.128952 7.3645039 -2.3532219
-36.92783 7.3917012 -2.2296214
-22.848274 7.0915027 -2.350055
-9.0936441 7.4984684 -2.2156599
7.5368576 7.5433693 -2.3666239
24.329033 7.2103558 -2.5848663
37.59203 7.5756121 -2.5646632
51.848606 7.437716 -1.7741163
65.101952 7.7096539 -1.8184121
-63.771542 23.026798 -2.0244248
-52.389168 22.499283 -2.3700762
-37.585571 23.125696 -2.4159369
-22.882799 22.617708 -2.4007816
-8.4814186 23.289518 -2.5697834
7.3692818 22.149263 -2.3607183
23.327997 22.46306 -3.1488733
37.619415 22.585911 -2.5566022
52.274311 23.305613 -2.379724
64.955521 22.991346 -1.8110162
-64.125877 37.697147 -1.5881882
-53.290649 37.374371 -2.1973524
-37.799561 37.482128 -2.4173517
-23.33729 37.304733 -2.4719784
-8.0533609 38.053806 -2.2245309
7.6531539 37.959869 -2.2655947
23.514914 36.901936 -2.4556198
37.358261 36.782658 -2.3503103
52.499367 38.17194 -2.2916405
63.966732 36.925007 -2.4676485
-63.292923 52.064468 -1.5277268
-52.395874 52.033756 -1.8035074
-37.894627 52.058453 -2.2944765
-23.28693 52.291698 -2.1858032
-7.8547363 52.198009 -2.4311471
7.5742965 52.885246 -2.1902192
22.662018 51.958652 -2.192703
37.204285 51.876308 -2.5134056
51.673164 51.667999 -2.1212649
63.883293 51.871754 -2.8184402
-62.599018 63.966537 -1.3581754
-52.60725 63.947659 -1.5632782
-37.173824 64.633362 -1.6212176
-22.826361 64.611107 -2.0547583
-7.2429399 64.773125 -2.1297169
7.3563843 65.038704 -2.5199955
23.443193 64.112083 -2.3092475
37.435452 64.016037 -2.6799607
52.635826 63.767651 -2.6535747
63.767166 64.699287 -3.277581
-64.058113 -63.000874 7.1701565
-51.851265 -63.422642 8.201416
-37.563496 -63.425533 8.1861944
-22.204447 -63.280632 8.058013
-7.7191782 -63.24313 7.9599557
7.6106882 -63.328724 7.9356961
21.995792 -63.271156 7.9967399
37.504036 -63.345604 7.9360824
52.113892 -63.171909 8.2991419
64.783447 -62.96809 7.3171906
-65.996529 -52.249512 7.7268343
-52.387901 -52.484093 3.231343
-37.115246 -51.469112 2.578548
-22.241373 -51.098118 3.0329783
-7.7543063 -51.546997 2.4061501
7.7668366 -52.800976 3.4904847
22.485054 -51.327847 2.4614427
37.967541 -51.005825 2.3782649
53.056519 -51.208042 2.109031
66.109879 -52.229111 6.7534809
-65.55452 -37.308094 7.7325344
-52.720642 -36.956928 3.2347891
-37.147495 -37.299217 3.2698042
-22.480659 -37.938503 3.3649843
-7.3576593 -36.486507 2.7358465
8.28932 -36.738014 3.089184
22.764259 -37.376354 2.6645107
38.1474 -37.789749 2.441756
53.729504 -37.083111 2.6162806
65.790619 -37.675716 6.9724712
-65.478271 -22.300673 7.9920988
-53.879784 -20.775164 2.8801274
-37.184872 -22.254665 2.7222447
-21.828417 -22.153416 2.8820827
-8.063159 -21.700321 2.7636328
8.8594418 -20.547997 3.4564056
22.501356 -22.562954 2.5089722
37.722847 -22.835339 2.4616597
53.773041 -22.966944 2.3604085
65.850403 -22.11014 7.7090559
-65.254326 -7.4234686 8.3220406
-52.865501 -7.0189791 2.55235
-36.200951 -6.8716359 2.2815859
-21.103895 -8.2630033 2.8314614
-7.1025553 -6.8294806 2.3335116
8.4065504 -7.1640115 2.8314435
22.768429 -7.3166065 2.4854639
37.476021 -8.1112032 2.2927482
53.532341 -7.5573225 2.2468164
65.410828 -7.4766865 7.4737859
-65.046196 7.4991131 7.8136768
-47.210674 7.8642888 2.6676741
-34.94651 6.8455529 2.8073752
-21.600798 7.3498588 2.8579133
-10.39006 6.4299335 2.0442348
7.2566185 7.0779686 3.0680599
23.220369 7.1204882 2.4798152
37.342167 6.0287561 2.4370704
51.306236 6.7777772 2.5944021
64.695129 7.3947563 7.4876866
-65.028976 22.06654 8.3867016
-50.011398 17.948111 2.238405
-35.668964 17.796267 2.6929939
-17.401197 16.639454 2.9390008
-7.1417174 15.098412 2.4150326
7.456152 17.465204 3.0372765
21.082043 17.405188 2.6708496
35.264217 18.691465 2.6920848
50.779064 19.556755 2.6252825
64.41584 21.273273 7.7436509
-64.504707 37.129642 7.6393762
-48.555176 34.618992 2.5676491
-35.686913 32.873158 2.111047
-18.304407 39.354919 1.8864597
-7.5255675 39.054428 1.9307209
7.3786926 38.714188 2.1426187
21.970808 38.544334 1.8761495
33.470387 38.780136 2.1667976
51.140568 37.845173 1.9481305
64.874664 37.386501 7.5390687
-64.176666 51.739269 7.9827795
-48.59259 50.305058 2.0319467
-36.141537 50.046154 1.8535254
-19.036272 48.983402 2.1699662
-7.2446752 49.815342 2.0279987
6.6565371 48.391827 2.008445
20.966394 49.559044 1.889944
34.496681 50.065285 2.0897274
51.177513 49.01305 2.0181167
64.569862 51.975979 7.8503799
-63.307949 64.94622 7.8825336
-52.100304 66.593933 7.0589509
-37.929913 64.76825 6.7174139
-20.427422 65.30732 6.860311
-6.4891143 64.862488 6.3455982
7.1066608 64.910477 6.3730693
20.76552 65.045578 6.628737
35.939587 64.202377 6.8054047
52.021069 64.778191 6.7587199
63.912296 65.020424 7.3085489
-64.149513 -62.770157 22.458067
-51.735977 -63.301601 22.807833
-37.446022 -63.415215 22.605064
-22.180307 -63.333942 22.299982
-7.5376835 -63.298145 21.446432
7.5441871 -63.338375 21.450108
22.179482 -63.333851 22.299702
37.446125 -63.415241 22.605446
51.847576 -63.273411 23.016296
64.369072 -63.024849 22.077438
-66.395874 -52.172577 22.68523
8.1535006 -51.696198 21.807734
57.7761 -51.697857 20.343821
66.463089 -52.549862 22.024767
-66.001335 -37.327965 22.581306
-19.57913 15.181301 8.1920757
-18.304407 39.354919 1.8864597
-42.121044 33.746075 2.3393481
-64.504707 37.129642 7.6393762
36.284672 -7.4570332 14.775692
43.021641 19.124111 2.6586838
21.082043 17.405188 2.6708496
20.017 -2.0379918 9.2444773
64.947624 -36.710346 22.690462
-65.180634 -21.825249 22.471828
-57.520187 20.007324 5.3125534
64.695129 7.3947563 7.4876866
13.362457 -5.2657533 14.706688
-2.761632 -16.029154 22.098663
7.2746744 -14.44703 21.868237
-15.995429 6.8898964 2.4510741
-34.94651 6.8455529 2.8073752
-17.62023 -4.6301837 10.971915
65.723907 -22.451275 22.246441
-65.757431 -7.964695 22.551155
-59.470757 -0.90278411 27.660196
-30.3652 -0.72308391 28.976812
-20.695721 -6.7223396 26.209305
-7.1402636 -7.4939528 24.576374
7.1014061 -7.2063985 23.669939
16.903675 -3.5524971 25.313877
58.876095 -13.942181 16.874172
65.290306 -7.9063897 22.621811
-65.231743 7.1557941 22.915276
-30.199156 3.5082672 29.614227
-20.827383 8.084589 26.483276
-7.0616145 8.3653603 25.624521
6.7770419 8.1496058 24.828506
17.166098 6.3280492 25.183584
65.267349 7.3416381 22.949827
-65.285461 22.542507 22.722914
-19.477329 21.10968 27.035589
-7.1092143 23.262306 26.808163
6.3188586 21.033604 25.531548
16.296217 16.296215 25.494211
65.425919 21.951187 22.681276
-64.954109 37.094044 22.309282
65.095718 37.085373 22.709827
-64.547806 51.9744 22.59511
64.51712 52.104092 23.118101
-63.544533 64.837975 22.612532
-51.030979 66.021828 22.295712
-36.812626 64.974503 22.076149
-22.796425 65.236511 21.807409
-8.6825113 64.972054 21.594944
7.7049117 64.816727 21.610128
23.364336 64.949371 21.813463
37.433189 64.674103 22.077784
50.673157 64.502502 22.061012
63.560459 64.72242 21.922663
-64.489838 -62.952305 37.299534
-52.861282 -63.5047 38.078156
-37.487442 -63.558861 37.829273
-22.558676 -63.23922 37.21669
-7.1160169 -63.552895 36.891701
7.1160221 -63.552788 36.785957
22.559111 -63.238995 37.216957
37.487175 -63.558945 37.829185
52.784191 -63.431839 38.030064
64.511581 -62.997345 37.417946
-66.436653 -51.991753 37.438549
-2.7178369 -51.696198 39.397881
2.7178319 -51.696198 30.602814
66.372314 -51.797592 37.509258
-65.949409 -37.004135 37.881275
-59.794346 -44.324409 34.586376
-2.7178369 -36.18734 39.397881
2.7178319 -36.18734 30.602814
59.794136 -44.325127 35.414001
65.871445 -37.22094 37.644306
-65.764687 -21.792404 37.146297
-16.657341 -17.400307 36.207127
-5.8760662 -20.095484 35.810215
5.1171556 -18.28446 34.933811
65.542717 -21.574518 37.583469
-65.36132 -7.3215609 37.727859
-27.362091 -6.1495872 38.568062
-2.7178369 -5.1696196 39.397881
2.7178319 -5.1696196 30.602814
17.869118 -6.2613602 36.612633
59.470757 -0.90278423 42.340508
65.515091 -6.8300133 37.266335
-65.41996 7.4964628 37.544682
-30.033623 1.640317 38.613472
-28.550854 10.215257 37.606068
-2.7178369 5.1696196 39.397881
2.7178319 5.1696196 30.602814
19.39431 9.2887325 35.566334
65.110115 7.483583 37.444885
-65.127388 22.861097 37.347927
-20.705496 22.927631 38.174152
-6.922246 27.905617 39.097919
6.4265714 24.827641 38.008858
16.384962 17.440069 37.661713
65.074608 22.816612 37.36697
-65.055855 37.286171 37.677567
-5.5339484 30.318565 30.478657
64.871872 37.105858 37.591415
-64.485016 52.036896 37.777473
64.443771 51.864655 37.699707
-63.331867 64.929787 37.533218
-52.127682 67.199928 37.667881
-37.212147 67.022072 37.607281
-22.955631 67.411537 37.189384
-7.7739916 67.136932 36.717213
7.7740035 67.137009 36.717167
22.955618 67.411629 37.189327
37.21249 67.022118 37.60741
51.853531 67.165352 37.330692
63.504253 65.041656 37.660641
-64.438797 -62.983341 52.946407
-51.721531 -63.33382 52.408661
-37.392124 -63.449554 52.474361
-22.275557 -63.313213 52.846355
-7.6880999 -63.379345 52.306362
7.6285257 -63.307957 52.301079
22.276011 -63.313404 52.846577
37.392384 -63.449451 52.475334
51.881958 -63.285831 52.393597
64.049393 -62.725052 52.519283
-66.458107 -52.496243 52.330475
-57.7761 -51.697857 49.656883
-10.871323 -51.696198 52.590508
66.180092 -52.704052 52.991623
-66.122459 -37.412281 52.897076
-59.736568 -38.677589 47.719585
-10.871323 -36.18734 52.590508
58.59042 -32.225536 49.4977
65.763603 -37.319843 52.524944
-65.852882 -22.520496 52.80077
-59.396275 -29.253361 47.565735
-18.156666 -16.738565 54.616566
-7.4367332 -20.214323 53.417381
7.4645014 -17.643206 54.065475
65.281166 -22.517654 52.888287
-65.68499 -7.6414766 52.826302
-58.876095 -13.942181 53.126534
-28.151291 -9.4138031 53.539574
-10.871323 -5.1696196 52.590508
13.090973 -13.438967 52.604897
15.380916 -7.9042354 55.045422
65.521217 -7.7441268 52.469845
-65.32531 7.218667 52.839893
-59.727821 8.3755779 57.024147
-30.483334 5.7459645 53.504723
-28.380957 7.5432882 55.291798
-10.871323 5.1696196 52.590508
20.0893 7.6188087 53.084793
65.207962 7.280571 52.525589
-65.486038 22.023169 52.820301
-21.329462 21.870947 53.947201
-7.8301301 27.236137 55.215736
8.5924425 24.8097 54.154514
17.805195 16.920511 54.417122
65.042366 22.011459 52.724026
-65.013412 37.165478 52.519344
64.785866 36.954006 52.632355
-64.671692 51.92255 52.760162
64.562119 52.056526 52.027229
-63.674736 64.841011 52.868118
-51.119255 64.800903 50.56728
-38.141609 64.164612 50.606228
-20.3717 64.930214 51.109032
-5.8822565 63.485165 50.172306
7.3797708 62.766991 50.489235
21.693008 65.083511 51.052078
35.518677 63.080505 50.875004
50.36488 64.681221 51.365723
60.776024 62.008003 52.079578
-64.931725 -63.032887 65.505623
-51.999451 -62.903999 65.889328
-37.327366 -63.190918 66.606873
-21.801605 -63.271301 66.535057
-6.9820509 -63.065617 66.771622
7.5542283 -63.102989 66.901237
22.38722 -63.177155 67.332222
37.699314 -63.264877 67.145317
52.196232 -63.017235 67.138428
63.974243 -62.936768 67.20546
-64.985275 -52.685825 67.218735
-51.264099 -52.225376 70.381012
-37.333897 -52.281807 70.293205
-21.630642 -52.398945 70.550598
-6.840435 -52.749561 70.482071
8.3593388 -52.212948 70.860153
21.22455 -52.346001 70.935379
37.092304 -52.102196 71.13176
50.147881 -52.045036 70.772446
65.412086 -52.208923 67.720909
-63.639862 -36.796425 67.4095
-53.238407 -36.310085 69.714264
-38.025543 -35.973129 69.35466
-22.841005 -36.582272 70.297745
-7.7293515 -35.042484 69.785622
7.9554992 -35.08474 70.332115
23.74004 -36.983372 71.148788
37.112648 -36.960011 70.842628
51.786686 -37.737034 71.150238
65.182098 -37.473591 67.126328
-64.809937 -21.750071 67.159035
-52.73135 -22.395988 69.400612
-36.190697 -22.119167 69.268005
-23.406521 -21.805511 69.75489
-8.5437813 -22.029697 68.677559
8.5739355 -21.864008 69.674957
23.820379 -22.163774 70.660156
37.077034 -21.362452 70.450218
51.551529 -21.542168 70.851738
64.908073 -22.362503 67.157127
-64.78215 -7.8281078 67.2304
-51.562321 -7.6364055 69.073013
-35.557968 -8.0687513 69.166245
-26.226313 -8.8444672 67.456871
13.038062 -13.395154 63.993492
23.126146 -8.1311569 69.860802
36.500069 -7.2605433 70.417244
50.243336 -7.0042176 70.715729
64.413971 -7.8153338 67.315674
-64.578751 7.0897913 66.843475
-50.711792 6.1805654 68.906624
-35.256153 5.91119 69.251526
-27.496742 7.75913 68.68174
22.612442 6.6716332 69.069756
36.81818 6.707808 70.121292
51.246208 7.0904899 70.367691
64.429794 7.4326258 67.332314
-64.256439 22.624802 66.719711
-52.016346 23.514637 68.143066
-35.07748 21.92605 68.08445
-22.97084 23.014576 67.948273
-5.8364444 26.274988 67.85894
9.1110096 24.930672 67.351746
18.410202 20.673651 68.581039
34.772751 22.017153 69.408142
51.13377 21.12686 70.265694
64.60788 22.463379 67.113411
-63.209846 36.351048 66.972702
-50.123947 33.711349 67.627075
-35.336128 32.79089 67.583267
-22.413889 32.988773 68.106827
-8.0000076 33.721115 68.391411
7.8098707 33.202404 68.261551
22.733721 34.169937 68.747734
36.063198 33.735603 68.956078
50.999397 35.84272 69.902832
64.432251 37.58009 66.703377
-63.182922 50.508179 67.257874
-50.143307 49.144249 67.085213
-35.843365 50.759483 67.483017
-20.98303 49.758957 67.618431
-7.1608415 50.679436 67.393021
8.2404995 50.980923 67.600296
20.254997 47.766045 68.353233
35.505318 49.028561 68.46386
51.153358 48.223 69.067528
63.894184 51.843121 66.411652
-64.092789 64.919022 67.008659
-51.816315 64.345634 66.362236
-36.200592 63.778221 65.013954
-22.718809 64.510666 66.141907
-7.7861934 64.690636 66.797729
7.1693654 64.535912 67.022346
22.423922 64.735504 66.23085
36.60585 64.264565 66.125893
52.31131 65.495682 67.624626
63.248859 64.665718 67.023727
-29.896126 -67.205055 83.373306
-61.08931 -49.664604 75.450211
-54.61676 -56.613598 75.740585
-42.141788 -49.280972 75.487259
-24.556604 -51.048229 77.534302
-4.9698095 -45.325184 75.135246
-62.903065 -35.057919 75.367012
-52.835754 -35.545593 75.65258
-36.486179 -38.351311 75.282539
-27.124342 -35.974686 77.46048
-7.8009014 -35.932102 75.205078
8.7834644 -33.182541 75.325317
27.101288 -41.91803 75.069977
-61.025406 -18.061289 75.136414
-59.331741 -20.280756 75.852013
-36.470718 -21.220264 75.601166
-23.122803 -21.092287 77.919243
-13.580526 -23.558239 75.664154
5.8954935 -23.741516 75.149994
21.300213 -22.169552 75.142433
55.146389 -25.302126 75.492157
-62.421818 -8.7461443 76.067924
-52.495075 -9.6556282 75.967415
-38.014698 -5.3769879 76.046692
-25.781212 -7.9020462 78.14241
20.007835 -11.957949 75.315155
35.438 -10.442412 75.420273
48.684128 -6.3244057 75.17807
-61.025406 6.0204291 75.136414
-51.725124 1.3862449 75.828629
-39.76757 5.7662992 76.342506
-27.250723 8.5419779 77.928177
37.01313 4.7190561 75.542526
52.775574 5.7642856 75.384216
60.977554 12.727619 75.17038
-61.025406 18.061289 75.136414
-53.97718 21.573668 76.808273
-40.170486 24.5221 76.897408
-25.720009 21.237053 77.757141
-6.4299712 27.288824 76.563225
10.078523 27.762568 75.777946
19.524931 20.991831 75.979271
34.193966 23.143965 75.829643
51.461449 22.965878 76.439362
63.115639 23.986713 75.834961
-60.947155 35.170414 75.576958
-49.029003 38.364708 76.800758
-33.576279 37.095028 76.920097
-22.775949 40.11409 76.162415
-6.2310553 36.895844 76.4002
9.2360163 40.687771 75.644592
23.002951 35.049843 75.603195
38.292358 38.156052 75.660645
51.441303 37.227951 75.812286
-63.615555 53.245872 75.985077
-57.16396 50.771492 77.343842
-34.948822 51.626076 76.418686
-19.910147 58.180885 76.372177
-9.1676531 54.590027 76.601631
6.8664947 52.683369 76.436401
22.693399 51.325371 75.575584
34.192474 50.457245 76.496811
45.385937 58.872387 76.946762
-63.711029 63.68045 75.390945
-52.920982 61.138096 76.223839
-36.2118 61.141754 75.646133
-21.262207 61.677917 76.69532
-4.3109436 63.849308 75.680046
6.0352945 61.141747 75.646133
21.665007 64.516029 76.511581
36.211803 61.141754 75.646133
54.315254 61.131771 75.648651
-35.331787 -67.205055 92.168381
-35.331787 -51.696198 92.168381
-35.331787 -36.18734 92.168381
-35.331787 -20.678478 92.168381
-35.331787 -5.1696196 92.168381
-35.331787 5.1696196 92.168381
-35.331787 20.678478 92.168381
