# .PCD v0.7 - Point Cloud Data file format
VERSION 0.7
FIELDS x y z
SIZE 4 4 4
TYPE F F F
COUNT 1 1 1
WIDTH 142
HEIGHT 1
VIEWPOINT 0 0 0 1 0 0 0
POINTS 142
DATA ascii
-63.494644 -62.849915 -1.8292978
-44.398087 -62.585857 -2.1229143
-16.343117 -62.719257 -1.9140143
13.13139 -62.465103 -1.6455451
41.653378 -62.151028 -1.5899831
63.710442 -63.577034 -0.18606949
-64.458641 -45.22176 -2.2339211
-44.369068 -44.110634 -2.4954548
-15.734819 -45.094963 -2.3437853
14.992709 -45.756157 -2.2795963
44.859825 -45.396969 -2.090198
63.791447 -44.646397 -1.9030577
-63.68129 -14.721168 -1.8192524
-45.460289 -15.673223 -2.451838
-15.844033 -15.627058 -2.4631264
15.188691 -15.562578 -2.3357649
44.702301 -15.643867 -2.1569493
63.759281 -14.614203 -2.1090617
-63.603401 15.368731 -1.9131904
-44.999451 15.053798 -2.3518052
-15.693638 15.154976 -2.4138756
14.596119 14.92772 -2.4732668
44.480003 15.041659 -2.3365016
64.876427 15.369783 -1.9399325
-63.692047 45.18013 -1.5566978
-45.252327 43.986855 -2.1985123
-16.329666 45.169987 -2.3265653
14.613346 44.623867 -2.2705202
43.834488 44.914421 -2.3355298
63.926983 44.042503 -2.6346922
-62.599022 63.966537 -1.3581754
-44.890537 64.290512 -1.5922477
-14.624558 64.696373 -2.0942104
14.476772 64.628563 -2.4267137
46.12138 63.874107 -2.6648831
63.767162 64.699287 -3.277581
-64.106285 -62.879288 15.2273
-44.040176 -63.392334 15.797039
-15.027097 -63.290459 15.244547
14.910814 -63.318184 15.182245
43.903084 -63.312481 15.779467
64.586121 -62.99511 14.345881
-65.952141 -43.770996 15.745151
-44.723324 -43.800915 2.9417205
-13.602021 -44.046913 2.5465519
15.008141 -44.184952 2.4759643
45.039963 -42.761696 2.4558432
66.001175 -43.736084 14.482183
-65.408234 -14.984918 15.302145
-44.752224 -14.019081 3.0337126
-13.919056 -13.332074 8.9441328
14.560822 -13.457364 5.8323269
46.176056 -15.263856 2.5008063
65.591713 -14.853022 14.460977
-65.095558 14.798334 14.881185
-44.163609 15.686915 2.740782
-14.393475 15.444553 9.591342
14.046779 15.364122 6.183166
45.885109 15.365169 2.4648714
65.337975 14.991858 14.500168
-64.571518 44.01186 15.635381
-42.816574 44.876469 2.323875
-14.096704 44.264786 2.5306304
14.873525 43.790176 2.4453218
44.133766 43.424007 2.4089999
64.778946 44.098888 15.312405
-63.434971 64.888115 15.790217
-43.174374 65.717392 14.084244
-14.962291 65.275116 13.424217
15.088583 66.205917 13.103329
43.012066 65.708633 13.822972
63.732998 64.868561 14.756127
-64.463112 -62.968578 45.504601
-44.343605 -63.467216 45.050404
-15.268478 -63.360195 45.090168
15.290676 -63.340961 45.030846
44.235329 -63.439274 45.096836
64.2864 -62.864697 44.775017
-66.187592 -43.501434 45.320572
-50.718498 -38.420208 52.491199
-15.234618 -38.278263 56.777996
15.508851 -35.180328 56.743008
49.692997 -35.954079 53.171211
66.022003 -43.848953 44.910488
-65.595154 -14.939748 45.588932
-59.136185 -21.597771 50.346134
-16.614674 -14.583636 48.024174
13.151878 -12.289731 48.883411
49.762615 -16.716476 47.02726
65.47226 -15.064816 45.14563
-65.291283 15.162607 45.479473
-44.993153 6.0343599 51.541626
-18.971951 20.117592 49.238575
14.283663 16.968925 48.255589
65.108505 14.993412 45.473423
-64.816826 44.214756 45.138985
-5.5339484 30.318565 30.478657
64.674751 44.057362 44.879669
-63.516228 64.882027 45.779343
-43.612465 66.314743 44.601013
-15.510718 66.435829 44.414509
15.500645 66.348648 44.422157
43.624626 66.078667 44.562302
62.206367 63.598473 44.520142
-64.931725 -63.032887 65.505623
-43.582897 -63.068581 66.300941
-14.494503 -63.19521 66.764061
15.428536 -63.142368 67.129997
44.2621 -63.15276 67.142212
63.974239 -62.936775 67.205444
-65.223091 -44.300617 67.737389
-44.877083 -44.414707 70.305595
-15.074798 -45.405994 70.615776
15.122168 -44.977329 70.973
44.462101 -44.194839 71.021736
65.282425 -43.90176 67.385696
-64.960144 -14.748767 67.591278
-45.450893 -15.387364 69.767853
-18.904392 -19.186586 69.22229
18.201561 -18.118357 70.302971
45.277039 -15.319313 71.008179
64.652466 -14.838107 67.239136
-65.089264 14.95967 67.259689
-45.170399 15.183475 69.519234
-20.519218 21.00404 69.015305
19.061699 18.476202 69.342354
44.752972 15.29677 70.709068
64.493797 14.944528 67.305794
-64.388573 43.900585 67.402359
-44.859028 45.12336 69.281296
-15.160516 45.004169 69.734825
15.528679 45.389595 70.007431
44.498455 44.66573 70.480988
64.174629 44.40905 66.563713
-64.075027 64.861404 67.398521
-43.682213 65.404205 67.041153
-14.899329 65.655182 67.309067
14.702049 65.735672 67.512444
43.742001 65.620491 67.47348
63.248859 64.665718 67.023735
-35.331787 -67.205055 92.168381
-35.331787 -56.865818 92.168381
