ply
            format ascii 1.0
            element vertex 65536
            property float x
            property float y
            property float z
            property uchar red
            property uchar green
            property uchar blue
            end_header
-0.114350 -0.557340 0.047965 255 255 255
-0.115681 -0.557340 0.047965 255 255 255
-0.117013 -0.557340 0.047965 255 255 255
-0.118344 -0.557340 0.047965 255 255 255
-0.119675 -0.557340 0.047965 255 255 255
-0.121006 -0.557340 0.047965 255 255 255
-0.122338 -0.557340 0.047965 255 255 255
-0.123669 -0.557340 0.047965 255 255 255
-0.125000 -0.557340 0.047965 255 255 255
-0.126331 -0.557340 0.047965 255 255 255
-0.127663 -0.557340 0.047965 255 255 255
-0.128994 -0.557340 0.047965 255 255 255
-0.130325 -0.557340 0.047965 255 255 255
-0.131656 -0.557340 0.047965 255 255 255
-0.132988 -0.557340 0.047965 255 255 255
-0.134319 -0.557340 0.047965 255 255 255
-0.135650 -0.557340 0.047965 255 255 255
-0.136981 -0.557341 0.047964 255 255 255
-0.138313 -0.557341 0.047964 255 255 255
-0.139644 -0.557341 0.047964 255 255 255
-0.140975 -0.557341 0.047964 255 255 255
-0.142306 -0.557341 0.047964 255 255 255
-0.143638 -0.557341 0.047964 255 255 255
-0.144969 -0.557341 0.047964 255 255 255
-0.146300 -0.557341 0.047964 255 255 255
-0.147631 -0.557341 0.047964 255 255 255
-0.148963 -0.557341 0.047964 255 255 255
-0.150294 -0.557341 0.047964 255 255 255
-0.151625 -0.557341 0.047964 255 255 255
-0.152956 -0.557341 0.047964 255 255 255
-0.154288 -0.557341 0.047964 255 255 255
-0.155619 -0.557341 0.047964 255 255 255
-0.157468 -0.560298 0.041849 255 255 255
-0.162609 -0.581050 -0.001060 255 255 255
-0.164113 -0.581050 -0.001060 255 255 255
-0.165617 -0.581050 -0.001060 255 255 255
-0.167122 -0.581050 -0.001060 255 255 255
-0.168626 -0.581050 -0.001060 255 255 255
-0.170130 -0.581050 -0.001060 255 255 255
-0.171635 -0.581050 -0.001060 255 255 255
-0.173139 -0.581050 -0.001060 255 255 255
-0.174644 -0.581050 -0.001060 255 255 255
-0.176148 -0.581050 -0.001060 255 255 255
-0.177652 -0.581050 -0.001060 255 255 255
-0.179157 -0.581050 -0.001060 255 255 255
-0.180661 -0.581050 -0.001060 255 255 255
-0.182165 -0.581050 -0.001060 255 255 255
-0.183670 -0.581050 -0.001060 255 255 255
-0.185174 -0.581050 -0.001060 255 255 255
-0.186678 -0.581049 -0.001059 255 255 255
-0.188182 -0.581049 -0.001059 255 255 255
-0.189687 -0.581049 -0.001059 255 255 255
-0.191191 -0.581049 -0.001059 255 255 255
-0.192695 -0.581049 -0.001059 255 255 255
-0.194200 -0.581049 -0.001059 255 255 255
-0.195704 -0.581049 -0.001059 255 255 255
-0.197209 -0.581049 -0.001059 255 255 255
-0.198713 -0.581049 -0.001059 255 255 255
-0.200217 -0.581049 -0.001059 255 255 255
-0.201722 -0.581049 -0.001059 255 255 255
-0.203226 -0.581049 -0.001059 255 255 255
-0.204730 -0.581049 -0.001059 255 255 255
-0.206235 -0.581049 -0.001059 255 255 255
-0.207739 -0.581049 -0.001059 255 255 255
-0.209243 -0.581049 -0.001059 255 255 255
-0.210748 -0.581049 -0.001059 255 255 255
-0.212252 -0.581049 -0.001059 255 255 255
-0.213756 -0.581049 -0.001059 255 255 255
-0.215261 -0.581049 -0.001059 255 255 255
-0.216765 -0.581049 -0.001059 255 255 255
-0.218269 -0.581049 -0.001059 255 255 255
-0.219774 -0.581049 -0.001059 255 255 255
-0.221278 -0.581049 -0.001059 255 255 255
-0.222782 -0.581049 -0.001059 255 255 255
-0.224287 -0.581049 -0.001059 255 255 255
-0.225791 -0.581049 -0.001059 255 255 255
-0.227295 -0.581049 -0.001059 255 255 255
-0.228800 -0.581049 -0.001059 255 255 255
-0.230304 -0.581049 -0.001059 255 255 255
-0.231808 -0.581049 -0.001059 255 255 255
-0.233313 -0.581049 -0.001059 255 255 255
-0.234817 -0.581049 -0.001059 255 255 255
-0.236321 -0.581049 -0.001059 255 255 255
-0.237826 -0.581049 -0.001059 255 255 255
-0.239330 -0.581049 -0.001059 255 255 255
-0.240834 -0.581049 -0.001059 255 255 255
-0.242339 -0.581049 -0.001059 255 255 255
-0.243843 -0.581049 -0.001059 255 255 255
-0.245347 -0.581049 -0.001059 255 255 255
-0.246852 -0.581049 -0.001059 255 255 255
-0.248356 -0.581049 -0.001059 255 255 255
-0.249860 -0.581049 -0.001059 255 255 255
-0.251365 -0.581049 -0.001059 255 255 255
-0.252869 -0.581049 -0.001059 255 255 255
-0.254374 -0.581049 -0.001059 255 255 255
-0.255878 -0.581049 -0.001059 255 255 255
-0.257382 -0.581049 -0.001059 255 255 255
-0.258887 -0.581049 -0.001059 255 255 255
-0.260391 -0.581049 -0.001059 255 255 255
-0.261895 -0.581049 -0.001059 255 255 255
-0.263400 -0.581049 -0.001059 255 255 255
-0.264904 -0.581049 -0.001059 255 255 255
-0.266408 -0.581049 -0.001059 255 255 255
-0.267913 -0.581049 -0.001059 255 255 255
-0.269417 -0.581049 -0.001059 255 255 255
-0.270921 -0.581049 -0.001059 255 255 255
-0.272426 -0.581049 -0.001059 255 255 255
-0.273930 -0.581049 -0.001059 255 255 255
-0.275434 -0.581049 -0.001059 255 255 255
-0.276939 -0.581049 -0.001059 255 255 255
-0.278443 -0.581049 -0.001059 255 255 255
-0.279947 -0.581049 -0.001059 255 255 255
-0.281452 -0.581049 -0.001059 255 255 255
-0.282956 -0.581049 -0.001059 255 255 255
-0.284460 -0.581049 -0.001059 255 255 255
-0.285965 -0.581049 -0.001059 255 255 255
-0.287469 -0.581049 -0.001059 255 255 255
-0.288973 -0.581049 -0.001059 255 255 255
-0.290478 -0.581049 -0.001059 255 255 255
-0.291982 -0.581049 -0.001059 255 255 255
-0.293486 -0.581049 -0.001059 255 255 255
-0.294991 -0.581049 -0.001059 255 255 255
-0.296495 -0.581049 -0.001059 255 255 255
-0.297999 -0.581049 -0.001059 255 255 255
-0.299504 -0.581049 -0.001059 255 255 255
-0.301008 -0.581049 -0.001059 255 255 255
-0.302512 -0.581049 -0.001059 255 255 255
-0.304017 -0.581049 -0.001059 255 255 255
-0.305521 -0.581049 -0.001059 255 255 255
-0.307025 -0.581049 -0.001059 255 255 255
-0.308530 -0.581049 -0.001059 255 255 255
-0.310034 -0.581049 -0.001059 255 255 255
-0.311539 -0.581049 -0.001059 255 255 255
-0.313043 -0.581049 -0.001059 255 255 255
-0.314547 -0.581049 -0.001059 255 255 255
-0.316052 -0.581049 -0.001059 255 255 255
-0.317556 -0.581049 -0.001059 255 255 255
0.065881 -0.579413 -0.001067 255 255 255
0.064378 -0.579413 -0.001067 255 255 255
0.062875 -0.579413 -0.001067 255 255 255
0.061372 -0.579413 -0.001067 255 255 255
0.059869 -0.579413 -0.001067 255 255 255
0.058366 -0.579413 -0.001067 255 255 255
0.056863 -0.579413 -0.001067 255 255 255
0.055360 -0.579413 -0.001067 255 255 255
0.053857 -0.579413 -0.001067 255 255 255
0.052354 -0.579413 -0.001067 255 255 255
0.050851 -0.579413 -0.001067 255 255 255
0.049348 -0.579413 -0.001067 255 255 255
0.047845 -0.579413 -0.001067 255 255 255
0.046342 -0.579413 -0.001067 255 255 255
0.044839 -0.579413 -0.001067 255 255 255
0.043336 -0.579413 -0.001067 255 255 255
0.041833 -0.579413 -0.001067 255 255 255
0.040330 -0.579413 -0.001067 255 255 255
0.038827 -0.579413 -0.001067 255 255 255
0.037324 -0.579413 -0.001067 255 255 255
0.035821 -0.579413 -0.001067 255 255 255
0.034318 -0.579413 -0.001067 255 255 255
0.032815 -0.579413 -0.001067 255 255 255
0.031312 -0.579413 -0.001067 255 255 255
0.029809 -0.579413 -0.001067 255 255 255
0.028306 -0.579413 -0.001067 255 255 255
0.026803 -0.579413 -0.001067 255 255 255
0.025300 -0.579413 -0.001067 255 255 255
0.023797 -0.579413 -0.001067 255 255 255
0.022294 -0.579413 -0.001067 255 255 255
0.020791 -0.579413 -0.001067 255 255 255
0.019288 -0.579413 -0.001067 255 255 255
0.017785 -0.579413 -0.001067 255 255 255
0.016282 -0.579413 -0.001067 255 255 255
0.014779 -0.579413 -0.001067 255 255 255
0.013276 -0.579413 -0.001067 255 255 255
0.011773 -0.579413 -0.001067 255 255 255
0.010270 -0.579413 -0.001067 255 255 255
0.008767 -0.579413 -0.001067 255 255 255
0.007264 -0.579413 -0.001067 255 255 255
0.005761 -0.579413 -0.001067 255 255 255
0.004258 -0.579413 -0.001067 255 255 255
0.002755 -0.579413 -0.001067 255 255 255
0.001252 -0.579413 -0.001067 255 255 255
-0.000251 -0.579413 -0.001067 255 255 255
-0.001754 -0.579413 -0.001067 255 255 255
-0.003257 -0.579413 -0.001067 255 255 255
-0.004760 -0.579413 -0.001067 255 255 255
-0.006263 -0.579413 -0.001067 255 255 255
-0.007766 -0.579413 -0.001067 255 255 255
-0.009269 -0.579413 -0.001067 255 255 255
-0.010772 -0.579413 -0.001067 255 255 255
-0.012275 -0.579413 -0.001067 255 255 255
-0.013778 -0.579413 -0.001067 255 255 255
-0.015281 -0.579413 -0.001067 255 255 255
-0.016784 -0.579413 -0.001067 255 255 255
-0.018287 -0.579413 -0.001067 255 255 255
-0.019790 -0.579413 -0.001067 255 255 255
-0.021293 -0.579413 -0.001067 255 255 255
-0.022796 -0.579413 -0.001067 255 255 255
-0.024299 -0.579413 -0.001067 255 255 255
-0.025802 -0.579413 -0.001067 255 255 255
-0.027305 -0.579413 -0.001067 255 255 255
-0.028808 -0.579413 -0.001067 255 255 255
-0.030311 -0.579413 -0.001067 255 255 255
-0.031814 -0.579413 -0.001067 255 255 255
-0.033317 -0.579413 -0.001067 255 255 255
-0.034820 -0.579413 -0.001067 255 255 255
-0.036323 -0.579413 -0.001067 255 255 255
-0.037826 -0.579413 -0.001067 255 255 255
-0.039329 -0.579413 -0.001067 255 255 255
-0.040832 -0.579413 -0.001067 255 255 255
-0.042335 -0.579413 -0.001067 255 255 255
-0.043838 -0.579413 -0.001067 255 255 255
-0.045341 -0.579413 -0.001067 255 255 255
-0.046844 -0.579413 -0.001067 255 255 255
-0.048347 -0.579413 -0.001067 255 255 255
-0.049850 -0.579413 -0.001067 255 255 255
-0.051353 -0.579413 -0.001067 255 255 255
-0.052856 -0.579413 -0.001067 255 255 255
-0.054359 -0.579413 -0.001067 255 255 255
-0.055862 -0.579413 -0.001067 255 255 255
-0.057365 -0.579413 -0.001067 255 255 255
-0.058868 -0.579413 -0.001067 255 255 255
-0.060371 -0.579413 -0.001067 255 255 255
-0.061874 -0.579413 -0.001067 255 255 255
-0.063377 -0.579413 -0.001067 255 255 255
-0.064880 -0.579413 -0.001067 255 255 255
-0.066383 -0.579413 -0.001067 255 255 255
-0.067886 -0.579413 -0.001067 255 255 255
-0.069389 -0.579413 -0.001067 255 255 255
-0.070892 -0.579413 -0.001067 255 255 255
-0.072395 -0.579413 -0.001067 255 255 255
-0.073898 -0.579413 -0.001067 255 255 255
-0.075401 -0.579413 -0.001067 255 255 255
-0.076904 -0.579413 -0.001067 255 255 255
-0.078407 -0.579414 -0.001068 255 255 255
-0.079910 -0.579414 -0.001068 255 255 255
-0.081413 -0.579414 -0.001068 255 255 255
-0.082916 -0.579414 -0.001068 255 255 255
-0.084419 -0.579414 -0.001068 255 255 255
-0.085922 -0.579414 -0.001068 255 255 255
-0.087425 -0.579414 -0.001068 255 255 255
-0.088928 -0.579414 -0.001068 255 255 255
-0.090431 -0.579413 -0.001067 255 255 255
-0.091934 -0.579413 -0.001067 255 255 255
-0.093437 -0.579413 -0.001067 255 255 255
-0.094940 -0.579413 -0.001067 255 255 255
-0.096443 -0.579413 -0.001067 255 255 255
-0.101059 -0.555893 0.047957 255 255 255
-0.102389 -0.555893 0.047957 255 255 255
-0.103719 -0.555893 0.047957 255 255 255
-0.105049 -0.555893 0.047957 255 255 255
-0.106379 -0.555893 0.047957 255 255 255
-0.107709 -0.555893 0.047957 255 255 255
-0.109039 -0.555893 0.047957 255 255 255
-0.110369 -0.555893 0.047957 255 255 255
-0.111699 -0.555893 0.047957 255 255 255
-0.113030 -0.555893 0.047957 255 255 255
-0.114360 -0.555893 0.047957 255 255 255
-0.115690 -0.555893 0.047957 255 255 255
-0.117020 -0.555893 0.047957 255 255 255
-0.118350 -0.555893 0.047957 255 255 255
-0.119680 -0.555893 0.047957 255 255 255
-0.121010 -0.555893 0.047957 255 255 255
-0.122340 -0.555893 0.047957 255 255 255
-0.123670 -0.555893 0.047957 255 255 255
-0.125000 -0.555893 0.047957 255 255 255
-0.126330 -0.555893 0.047957 255 255 255
-0.127660 -0.555893 0.047957 255 255 255
-0.128990 -0.555893 0.047957 255 255 255
-0.130320 -0.555893 0.047957 255 255 255
-0.131650 -0.555893 0.047957 255 255 255
-0.132980 -0.555893 0.047957 255 255 255
-0.134311 -0.555893 0.047957 255 255 255
-0.135641 -0.555893 0.047957 255 255 255
-0.136971 -0.555893 0.047957 255 255 255
-0.138301 -0.555893 0.047957 255 255 255
-0.139631 -0.555893 0.047957 255 255 255
-0.140961 -0.555893 0.047957 255 255 255
-0.142291 -0.555893 0.047957 255 255 255
-0.143621 -0.555893 0.047957 255 255 255
-0.144951 -0.555893 0.047957 255 255 255
-0.146281 -0.555893 0.047957 255 255 255
-0.147611 -0.555893 0.047957 255 255 255
-0.148941 -0.555893 0.047957 255 255 255
-0.150271 -0.555893 0.047957 255 255 255
-0.151601 -0.555893 0.047957 255 255 255
-0.152931 -0.555893 0.047957 255 255 255
-0.154261 -0.555893 0.047957 255 255 255
-0.155592 -0.555893 0.047957 255 255 255
-0.157828 -0.561030 0.037250 255 255 255
-0.162575 -0.579413 -0.001067 255 255 255
-0.164078 -0.579413 -0.001067 255 255 255
-0.165581 -0.579413 -0.001067 255 255 255
-0.167084 -0.579413 -0.001067 255 255 255
-0.168587 -0.579413 -0.001067 255 255 255
-0.170090 -0.579413 -0.001067 255 255 255
-0.171593 -0.579413 -0.001067 255 255 255
-0.173096 -0.579413 -0.001067 255 255 255
-0.174599 -0.579413 -0.001067 255 255 255
-0.176102 -0.579413 -0.001067 255 255 255
-0.177605 -0.579413 -0.001067 255 255 255
-0.179108 -0.579413 -0.001067 255 255 255
-0.180611 -0.579413 -0.001067 255 255 255
-0.182114 -0.579413 -0.001067 255 255 255
-0.183617 -0.579413 -0.001067 255 255 255
-0.185120 -0.579413 -0.001067 255 255 255
-0.186623 -0.579413 -0.001067 255 255 255
-0.188126 -0.579413 -0.001067 255 255 255
-0.189629 -0.579413 -0.001067 255 255 255
-0.191132 -0.579413 -0.001067 255 255 255
-0.192635 -0.579413 -0.001067 255 255 255
-0.194138 -0.579413 -0.001067 255 255 255
-0.195641 -0.579413 -0.001067 255 255 255
-0.197144 -0.579413 -0.001067 255 255 255
-0.198647 -0.579413 -0.001067 255 255 255
-0.200150 -0.579413 -0.001067 255 255 255
-0.201653 -0.579413 -0.001067 255 255 255
-0.203156 -0.579413 -0.001067 255 255 255
-0.204659 -0.579413 -0.001067 255 255 255
-0.206162 -0.579413 -0.001067 255 255 255
-0.207665 -0.579413 -0.001067 255 255 255
-0.209168 -0.579413 -0.001067 255 255 255
-0.210671 -0.579413 -0.001067 255 255 255
-0.212174 -0.579413 -0.001067 255 255 255
-0.213677 -0.579413 -0.001067 255 255 255
-0.215180 -0.579413 -0.001067 255 255 255
-0.216683 -0.579413 -0.001067 255 255 255
-0.218186 -0.579413 -0.001067 255 255 255
-0.219689 -0.579413 -0.001067 255 255 255
-0.221192 -0.579413 -0.001067 255 255 255
-0.222695 -0.579413 -0.001067 255 255 255
-0.224198 -0.579413 -0.001067 255 255 255
-0.225701 -0.579413 -0.001067 255 255 255
-0.227204 -0.579413 -0.001067 255 255 255
-0.228707 -0.579413 -0.001067 255 255 255
-0.230210 -0.579413 -0.001067 255 255 255
-0.231713 -0.579413 -0.001067 255 255 255
-0.233216 -0.579413 -0.001067 255 255 255
-0.234719 -0.579413 -0.001067 255 255 255
-0.236222 -0.579413 -0.001067 255 255 255
-0.237725 -0.579413 -0.001067 255 255 255
-0.239228 -0.579413 -0.001067 255 255 255
-0.240731 -0.579413 -0.001067 255 255 255
-0.242234 -0.579413 -0.001067 255 255 255
-0.243737 -0.579413 -0.001067 255 255 255
-0.245240 -0.579413 -0.001067 255 255 255
-0.246743 -0.579413 -0.001067 255 255 255
-0.248246 -0.579413 -0.001067 255 255 255
-0.249749 -0.579413 -0.001067 255 255 255
-0.251252 -0.579413 -0.001067 255 255 255
-0.252755 -0.579413 -0.001067 255 255 255
-0.254258 -0.579413 -0.001067 255 255 255
-0.255761 -0.579413 -0.001067 255 255 255
-0.257264 -0.579413 -0.001067 255 255 255
-0.258767 -0.579413 -0.001067 255 255 255
-0.260270 -0.579413 -0.001067 255 255 255
-0.261773 -0.579413 -0.001067 255 255 255
-0.263276 -0.579413 -0.001067 255 255 255
-0.264779 -0.579413 -0.001067 255 255 255
-0.266282 -0.579413 -0.001067 255 255 255
-0.267785 -0.579413 -0.001067 255 255 255
-0.269288 -0.579413 -0.001067 255 255 255
-0.270791 -0.579413 -0.001067 255 255 255
-0.272294 -0.579413 -0.001067 255 255 255
-0.273797 -0.579413 -0.001067 255 255 255
-0.275300 -0.579413 -0.001067 255 255 255
-0.276803 -0.579413 -0.001067 255 255 255
-0.278306 -0.579413 -0.001067 255 255 255
-0.279809 -0.579413 -0.001067 255 255 255
-0.281312 -0.579413 -0.001067 255 255 255
-0.282815 -0.579413 -0.001067 255 255 255
-0.284318 -0.579413 -0.001067 255 255 255
-0.285821 -0.579413 -0.001067 255 255 255
-0.287324 -0.579413 -0.001067 255 255 255
-0.288827 -0.579413 -0.001067 255 255 255
-0.290330 -0.579413 -0.001067 255 255 255
-0.291833 -0.579413 -0.001067 255 255 255
-0.293336 -0.579413 -0.001067 255 255 255
-0.294839 -0.579413 -0.001067 255 255 255
-0.296342 -0.579413 -0.001067 255 255 255
-0.297845 -0.579413 -0.001067 255 255 255
-0.299348 -0.579413 -0.001067 255 255 255
-0.300851 -0.579413 -0.001067 255 255 255
-0.302354 -0.579413 -0.001067 255 255 255
-0.303857 -0.579413 -0.001067 255 255 255
-0.305360 -0.579413 -0.001067 255 255 255
-0.306863 -0.579413 -0.001067 255 255 255
-0.308366 -0.579413 -0.001067 255 255 255
-0.309869 -0.579413 -0.001067 255 255 255
-0.311372 -0.579413 -0.001067 255 255 255
-0.312875 -0.579413 -0.001067 255 255 255
-0.314378 -0.579413 -0.001067 255 255 255
-0.315881 -0.579413 -0.001067 255 255 255
-0.317384 -0.579413 -0.001067 255 255 255
0.065711 -0.577780 -0.001076 255 255 255
0.064209 -0.577780 -0.001076 255 255 255
0.062707 -0.577780 -0.001076 255 255 255
0.061206 -0.577780 -0.001076 255 255 255
0.059704 -0.577780 -0.001076 255 255 255
0.058202 -0.577780 -0.001076 255 255 255
0.056701 -0.577780 -0.001076 255 255 255
0.055199 -0.577780 -0.001076 255 255 255
0.053697 -0.577780 -0.001076 255 255 255
0.052196 -0.577780 -0.001076 255 255 255
0.050694 -0.577780 -0.001076 255 255 255
0.049192 -0.577780 -0.001076 255 255 255
0.047691 -0.577780 -0.001076 255 255 255
0.046189 -0.577780 -0.001076 255 255 255
0.044687 -0.577780 -0.001076 255 255 255
0.043186 -0.577780 -0.001076 255 255 255
0.041684 -0.577780 -0.001076 255 255 255
0.040182 -0.577780 -0.001076 255 255 255
0.038681 -0.577780 -0.001076 255 255 255
0.037179 -0.577780 -0.001076 255 255 255
0.035677 -0.577780 -0.001076 255 255 255
0.034176 -0.577780 -0.001076 255 255 255
0.032674 -0.577780 -0.001076 255 255 255
0.031172 -0.577780 -0.001076 255 255 255
0.029671 -0.577780 -0.001076 255 255 255
0.028169 -0.577780 -0.001076 255 255 255
0.026667 -0.577780 -0.001076 255 255 255
0.025166 -0.577780 -0.001076 255 255 255
0.023664 -0.577780 -0.001076 255 255 255
0.022162 -0.577780 -0.001076 255 255 255
0.020661 -0.577780 -0.001076 255 255 255
0.019159 -0.577780 -0.001076 255 255 255
0.017657 -0.577780 -0.001076 255 255 255
0.016156 -0.577780 -0.001076 255 255 255
0.014654 -0.577780 -0.001076 255 255 255
0.013152 -0.577780 -0.001076 255 255 255
0.011651 -0.577780 -0.001076 255 255 255
0.010149 -0.577780 -0.001076 255 255 255
0.008648 -0.577780 -0.001076 255 255 255
0.007146 -0.577780 -0.001076 255 255 255
0.005644 -0.577780 -0.001076 255 255 255
0.004143 -0.577780 -0.001076 255 255 255
0.002641 -0.577780 -0.001076 255 255 255
0.001139 -0.577780 -0.001076 255 255 255
-0.000362 -0.577780 -0.001076 255 255 255
-0.001864 -0.577780 -0.001076 255 255 255
-0.003366 -0.577780 -0.001076 255 255 255
-0.004867 -0.577780 -0.001076 255 255 255
-0.006369 -0.577780 -0.001076 255 255 255
-0.007871 -0.577780 -0.001076 255 255 255
-0.009372 -0.577780 -0.001076 255 255 255
-0.010874 -0.577780 -0.001076 255 255 255
-0.012376 -0.577780 -0.001076 255 255 255
-0.013877 -0.577780 -0.001076 255 255 255
-0.015379 -0.577780 -0.001076 255 255 255
-0.016881 -0.577780 -0.001076 255 255 255
-0.018382 -0.577780 -0.001076 255 255 255
-0.019884 -0.577780 -0.001076 255 255 255
-0.021386 -0.577780 -0.001076 255 255 255
-0.022887 -0.577780 -0.001076 255 255 255
-0.024389 -0.577780 -0.001076 255 255 255
-0.025891 -0.577780 -0.001076 255 255 255
-0.027392 -0.577780 -0.001076 255 255 255
-0.028894 -0.577780 -0.001076 255 255 255
-0.030396 -0.577780 -0.001076 255 255 255
-0.031897 -0.577780 -0.001076 255 255 255
-0.033399 -0.577780 -0.001076 255 255 255
-0.034901 -0.577780 -0.001076 255 255 255
-0.036402 -0.577780 -0.001076 255 255 255
-0.037904 -0.577780 -0.001076 255 255 255
-0.039406 -0.577780 -0.001076 255 255 255
-0.040907 -0.577780 -0.001076 255 255 255
-0.042409 -0.577780 -0.001076 255 255 255
-0.043911 -0.577780 -0.001076 255 255 255
-0.045412 -0.577780 -0.001076 255 255 255
-0.046914 -0.577780 -0.001076 255 255 255
-0.048416 -0.577780 -0.001076 255 255 255
-0.049917 -0.577780 -0.001076 255 255 255
-0.051419 -0.577780 -0.001076 255 255 255
-0.052920 -0.577780 -0.001076 255 255 255
-0.054422 -0.577780 -0.001076 255 255 255
-0.055924 -0.577780 -0.001076 255 255 255
-0.057425 -0.577780 -0.001076 255 255 255
-0.058927 -0.577780 -0.001076 255 255 255
-0.060429 -0.577780 -0.001076 255 255 255
-0.061930 -0.577780 -0.001076 255 255 255
-0.063432 -0.577780 -0.001076 255 255 255
-0.064934 -0.577780 -0.001076 255 255 255
-0.066435 -0.577780 -0.001076 255 255 255
-0.067937 -0.577780 -0.001076 255 255 255
-0.069439 -0.577780 -0.001076 255 255 255
-0.070940 -0.577780 -0.001076 255 255 255
-0.072442 -0.577780 -0.001076 255 255 255
-0.073944 -0.577780 -0.001076 255 255 255
-0.075445 -0.577780 -0.001076 255 255 255
-0.076947 -0.577780 -0.001076 255 255 255
-0.078449 -0.577780 -0.001076 255 255 255
-0.079950 -0.577780 -0.001076 255 255 255
-0.081452 -0.577780 -0.001076 255 255 255
-0.082954 -0.577780 -0.001076 255 255 255
-0.084455 -0.577780 -0.001076 255 255 255
-0.085957 -0.577780 -0.001076 255 255 255
-0.087459 -0.577780 -0.001076 255 255 255
-0.088960 -0.577780 -0.001076 255 255 255
-0.090462 -0.577780 -0.001076 255 255 255
-0.091964 -0.577780 -0.001076 255 255 255
-0.093465 -0.577780 -0.001076 255 255 255
-0.094967 -0.577780 -0.001076 255 255 255
-0.096469 -0.577780 -0.001076 255 255 255
-0.101080 -0.554449 0.047948 255 255 255
-0.102409 -0.554449 0.047948 255 255 255
-0.103738 -0.554449 0.047948 255 255 255
-0.105067 -0.554449 0.047948 255 255 255
-0.106396 -0.554449 0.047948 255 255 255
-0.107725 -0.554449 0.047948 255 255 255
-0.109054 -0.554449 0.047948 255 255 255
-0.110382 -0.554449 0.047948 255 255 255
-0.111711 -0.554449 0.047948 255 255 255
-0.113040 -0.554449 0.047948 255 255 255
-0.114369 -0.554449 0.047948 255 255 255
-0.115698 -0.554449 0.047948 255 255 255
-0.117027 -0.554449 0.047948 255 255 255
-0.118356 -0.554449 0.047948 255 255 255
-0.119685 -0.554449 0.047948 255 255 255
-0.121013 -0.554449 0.047948 255 255 255
-0.122342 -0.554449 0.047948 255 255 255
-0.123671 -0.554449 0.047948 255 255 255
-0.125000 -0.554449 0.047948 255 255 255
-0.126329 -0.554449 0.047948 255 255 255
-0.127658 -0.554449 0.047948 255 255 255
-0.128987 -0.554449 0.047948 255 255 255
-0.130316 -0.554449 0.047948 255 255 255
-0.131644 -0.554449 0.047948 255 255 255
-0.132973 -0.554449 0.047948 255 255 255
-0.134302 -0.554449 0.047948 255 255 255
-0.135631 -0.554449 0.047948 255 255 255
-0.136960 -0.554449 0.047948 255 255 255
-0.138289 -0.554449 0.047948 255 255 255
-0.139618 -0.554449 0.047948 255 255 255
-0.140947 -0.554449 0.047948 255 255 255
-0.142276 -0.554449 0.047948 255 255 255
-0.143604 -0.554449 0.047948 255 255 255
-0.144933 -0.554449 0.047948 255 255 255
-0.146262 -0.554449 0.047948 255 255 255
-0.147591 -0.554449 0.047948 255 255 255
-0.148920 -0.554449 0.047948 255 255 255
-0.150249 -0.554449 0.047948 255 255 255
-0.151578 -0.554449 0.047948 255 255 255
-0.152907 -0.554449 0.047948 255 255 255
-0.154235 -0.554449 0.047948 255 255 255
-0.156041 -0.557245 0.042073 255 255 255
-0.158196 -0.561779 0.032546 255 255 255
-0.162542 -0.577780 -0.001076 255 255 255
-0.164043 -0.577780 -0.001076 255 255 255
-0.165545 -0.577780 -0.001076 255 255 255
-0.167047 -0.577780 -0.001076 255 255 255
-0.168548 -0.577780 -0.001076 255 255 255
-0.170050 -0.577780 -0.001076 255 255 255
-0.171551 -0.577780 -0.001076 255 255 255
-0.173053 -0.577780 -0.001076 255 255 255
-0.174555 -0.577780 -0.001076 255 255 255
-0.176056 -0.577780 -0.001076 255 255 255
-0.177558 -0.577780 -0.001076 255 255 255
-0.179060 -0.577780 -0.001076 255 255 255
-0.180561 -0.577780 -0.001076 255 255 255
-0.182063 -0.577780 -0.001076 255 255 255
-0.183565 -0.577780 -0.001076 255 255 255
-0.185066 -0.577780 -0.001076 255 255 255
-0.186568 -0.577780 -0.001076 255 255 255
-0.188070 -0.577780 -0.001076 255 255 255
-0.189571 -0.577780 -0.001076 255 255 255
-0.191073 -0.577780 -0.001076 255 255 255
-0.192575 -0.577780 -0.001076 255 255 255
-0.194076 -0.577780 -0.001076 255 255 255
-0.195578 -0.577780 -0.001076 255 255 255
-0.197080 -0.577780 -0.001076 255 255 255
-0.198581 -0.577780 -0.001076 255 255 255
-0.200083 -0.577780 -0.001076 255 255 255
-0.201585 -0.577780 -0.001076 255 255 255
-0.203086 -0.577780 -0.001076 255 255 255
-0.204588 -0.577780 -0.001076 255 255 255
-0.206090 -0.577780 -0.001076 255 255 255
-0.207591 -0.577780 -0.001076 255 255 255
-0.209093 -0.577780 -0.001076 255 255 255
-0.210595 -0.577780 -0.001076 255 255 255
-0.212096 -0.577780 -0.001076 255 255 255
-0.213598 -0.577780 -0.001076 255 255 255
-0.215100 -0.577780 -0.001076 255 255 255
-0.216601 -0.577780 -0.001076 255 255 255
-0.218103 -0.577780 -0.001076 255 255 255
-0.219605 -0.577780 -0.001076 255 255 255
-0.221106 -0.577780 -0.001076 255 255 255
-0.222608 -0.577780 -0.001076 255 255 255
-0.224110 -0.577780 -0.001076 255 255 255
-0.225611 -0.577780 -0.001076 255 255 255
-0.227113 -0.577780 -0.001076 255 255 255
-0.228615 -0.577780 -0.001076 255 255 255
-0.230116 -0.577780 -0.001076 255 255 255
-0.231618 -0.577780 -0.001076 255 255 255
-0.233120 -0.577780 -0.001076 255 255 255
-0.234621 -0.577780 -0.001076 255 255 255
-0.236123 -0.577780 -0.001076 255 255 255
-0.237624 -0.577780 -0.001076 255 255 255
-0.239126 -0.577780 -0.001076 255 255 255
-0.240628 -0.577780 -0.001076 255 255 255
-0.242129 -0.577780 -0.001076 255 255 255
-0.243631 -0.577780 -0.001076 255 255 255
-0.245133 -0.577780 -0.001076 255 255 255
-0.246634 -0.577780 -0.001076 255 255 255
-0.248136 -0.577780 -0.001076 255 255 255
-0.249638 -0.577780 -0.001076 255 255 255
-0.251139 -0.577780 -0.001076 255 255 255
-0.252641 -0.577780 -0.001076 255 255 255
-0.254143 -0.577780 -0.001076 255 255 255
-0.255644 -0.577780 -0.001076 255 255 255
-0.257146 -0.577780 -0.001076 255 255 255
-0.258648 -0.577780 -0.001076 255 255 255
-0.260149 -0.577780 -0.001076 255 255 255
-0.261651 -0.577780 -0.001076 255 255 255
-0.263153 -0.577780 -0.001076 255 255 255
-0.264654 -0.577780 -0.001076 255 255 255
-0.266156 -0.577780 -0.001076 255 255 255
-0.267658 -0.577780 -0.001076 255 255 255
-0.269159 -0.577780 -0.001076 255 255 255
-0.270661 -0.577780 -0.001076 255 255 255
-0.272163 -0.577780 -0.001076 255 255 255
-0.273664 -0.577780 -0.001076 255 255 255
-0.275166 -0.577780 -0.001076 255 255 255
-0.276668 -0.577780 -0.001076 255 255 255
-0.278169 -0.577780 -0.001076 255 255 255
-0.279671 -0.577780 -0.001076 255 255 255
-0.281173 -0.577780 -0.001076 255 255 255
-0.282674 -0.577780 -0.001076 255 255 255
-0.284176 -0.577780 -0.001076 255 255 255
-0.285678 -0.577780 -0.001076 255 255 255
-0.287179 -0.577780 -0.001076 255 255 255
-0.288681 -0.577780 -0.001076 255 255 255
-0.290183 -0.577780 -0.001076 255 255 255
-0.291684 -0.577780 -0.001076 255 255 255
-0.293186 -0.577780 -0.001076 255 255 255
-0.294688 -0.577780 -0.001076 255 255 255
-0.296189 -0.577780 -0.001076 255 255 255
-0.297691 -0.577780 -0.001076 255 255 255
-0.299192 -0.577780 -0.001076 255 255 255
-0.300694 -0.577780 -0.001076 255 255 255
-0.302196 -0.577780 -0.001076 255 255 255
-0.303697 -0.577780 -0.001076 255 255 255
-0.305199 -0.577780 -0.001076 255 255 255
-0.306701 -0.577780 -0.001076 255 255 255
-0.308202 -0.577780 -0.001076 255 255 255
-0.309704 -0.577780 -0.001076 255 255 255
-0.311206 -0.577780 -0.001076 255 255 255
-0.312707 -0.577780 -0.001076 255 255 255
-0.314209 -0.577780 -0.001076 255 255 255
-0.315711 -0.577780 -0.001076 255 255 255
-0.317212 -0.577780 -0.001076 255 255 255
0.065540 -0.576150 -0.001083 255 255 255
0.064040 -0.576150 -0.001083 255 255 255
0.062539 -0.576150 -0.001083 255 255 255
0.061039 -0.576150 -0.001083 255 255 255
0.059539 -0.576150 -0.001083 255 255 255
0.058039 -0.576150 -0.001083 255 255 255
0.056538 -0.576150 -0.001083 255 255 255
0.055038 -0.576150 -0.001083 255 255 255
0.053538 -0.576150 -0.001083 255 255 255
0.052037 -0.576150 -0.001083 255 255 255
0.050537 -0.576150 -0.001083 255 255 255
0.049037 -0.576150 -0.001083 255 255 255
0.047536 -0.576150 -0.001083 255 255 255
0.046036 -0.576150 -0.001083 255 255 255
0.044536 -0.576150 -0.001083 255 255 255
0.043035 -0.576150 -0.001083 255 255 255
0.041535 -0.576150 -0.001083 255 255 255
0.040035 -0.576150 -0.001083 255 255 255
0.038534 -0.576150 -0.001083 255 255 255
0.037034 -0.576150 -0.001083 255 255 255
0.035534 -0.576150 -0.001083 255 255 255
0.034033 -0.576150 -0.001083 255 255 255
0.032533 -0.576150 -0.001083 255 255 255
0.031033 -0.576150 -0.001083 255 255 255
0.029533 -0.576150 -0.001083 255 255 255
0.028032 -0.576150 -0.001083 255 255 255
0.026532 -0.576150 -0.001083 255 255 255
0.025032 -0.576150 -0.001083 255 255 255
0.023531 -0.576150 -0.001083 255 255 255
0.022031 -0.576150 -0.001083 255 255 255
0.020531 -0.576150 -0.001083 255 255 255
0.019030 -0.576150 -0.001083 255 255 255
0.017530 -0.576150 -0.001083 255 255 255
0.016030 -0.576150 -0.001083 255 255 255
0.014529 -0.576150 -0.001083 255 255 255
0.013029 -0.576150 -0.001083 255 255 255
0.011529 -0.576150 -0.001083 255 255 255
0.010028 -0.576150 -0.001083 255 255 255
0.008528 -0.576150 -0.001083 255 255 255
0.007028 -0.576150 -0.001083 255 255 255
0.005527 -0.576150 -0.001083 255 255 255
0.004027 -0.576150 -0.001083 255 255 255
0.002527 -0.576150 -0.001083 255 255 255
0.001026 -0.576150 -0.001083 255 255 255
-0.000474 -0.576150 -0.001083 255 255 255
-0.001974 -0.576150 -0.001083 255 255 255
-0.003474 -0.576150 -0.001083 255 255 255
-0.004975 -0.576150 -0.001083 255 255 255
-0.006475 -0.576150 -0.001083 255 255 255
-0.007975 -0.576150 -0.001083 255 255 255
-0.009476 -0.576150 -0.001083 255 255 255
-0.010976 -0.576150 -0.001083 255 255 255
-0.012476 -0.576150 -0.001083 255 255 255
-0.013977 -0.576150 -0.001083 255 255 255
-0.015477 -0.576150 -0.001083 255 255 255
-0.016977 -0.576150 -0.001083 255 255 255
-0.018478 -0.576150 -0.001083 255 255 255
-0.019978 -0.576150 -0.001083 255 255 255
-0.021478 -0.576150 -0.001083 255 255 255
-0.022979 -0.576150 -0.001083 255 255 255
-0.024479 -0.576150 -0.001083 255 255 255
-0.025979 -0.576150 -0.001083 255 255 255
-0.027479 -0.576151 -0.001084 255 255 255
-0.028980 -0.576151 -0.001084 255 255 255
-0.030480 -0.576150 -0.001083 255 255 255
-0.031980 -0.576150 -0.001083 255 255 255
-0.033481 -0.576150 -0.001083 255 255 255
-0.034981 -0.576150 -0.001083 255 255 255
-0.036481 -0.576150 -0.001083 255 255 255
-0.037982 -0.576150 -0.001083 255 255 255
-0.039482 -0.576151 -0.001084 255 255 255
-0.040982 -0.576151 -0.001084 255 255 255
-0.042482 -0.576151 -0.001084 255 255 255
-0.043983 -0.576151 -0.001084 255 255 255
-0.045483 -0.576151 -0.001084 255 255 255
-0.046983 -0.576151 -0.001084 255 255 255
-0.048484 -0.576151 -0.001084 255 255 255
-0.049984 -0.576151 -0.001084 255 255 255
-0.051484 -0.576151 -0.001084 255 255 255
-0.052985 -0.576151 -0.001084 255 255 255
-0.054485 -0.576151 -0.001084 255 255 255
-0.055985 -0.576151 -0.001084 255 255 255
-0.057486 -0.576151 -0.001084 255 255 255
-0.058986 -0.576151 -0.001084 255 255 255
-0.060486 -0.576151 -0.001084 255 255 255
-0.061987 -0.576151 -0.001084 255 255 255
-0.063487 -0.576151 -0.001084 255 255 255
-0.064987 -0.576151 -0.001084 255 255 255
-0.066488 -0.576151 -0.001084 255 255 255
-0.067988 -0.576151 -0.001084 255 255 255
-0.069488 -0.576151 -0.001084 255 255 255
-0.070989 -0.576151 -0.001084 255 255 255
-0.072489 -0.576151 -0.001084 255 255 255
-0.073989 -0.576151 -0.001084 255 255 255
-0.075490 -0.576151 -0.001084 255 255 255
-0.076990 -0.576151 -0.001084 255 255 255
-0.078490 -0.576151 -0.001084 255 255 255
-0.079990 -0.576151 -0.001084 255 255 255
-0.081491 -0.576151 -0.001084 255 255 255
-0.082991 -0.576151 -0.001084 255 255 255
-0.084491 -0.576151 -0.001084 255 255 255
-0.085992 -0.576151 -0.001084 255 255 255
-0.087492 -0.576151 -0.001084 255 255 255
-0.088992 -0.576151 -0.001084 255 255 255
-0.090493 -0.576151 -0.001084 255 255 255
-0.091993 -0.576151 -0.001084 255 255 255
-0.093493 -0.576151 -0.001084 255 255 255
-0.094994 -0.576151 -0.001084 255 255 255
-0.099774 -0.553006 0.047940 255 255 255
-0.101102 -0.553006 0.047940 255 255 255
-0.102429 -0.553006 0.047940 255 255 255
-0.103757 -0.553006 0.047940 255 255 255
-0.105085 -0.553006 0.047940 255 255 255
-0.106412 -0.553006 0.047940 255 255 255
-0.107740 -0.553006 0.047940 255 255 255
-0.109068 -0.553006 0.047940 255 255 255
-0.110395 -0.553006 0.047940 255 255 255
-0.111723 -0.553006 0.047940 255 255 255
-0.113051 -0.553006 0.047940 255 255 255
-0.114379 -0.553006 0.047940 255 255 255
-0.115706 -0.553006 0.047940 255 255 255
-0.117034 -0.553006 0.047940 255 255 255
-0.118362 -0.553006 0.047940 255 255 255
-0.119689 -0.553006 0.047940 255 255 255
-0.121017 -0.553006 0.047940 255 255 255
-0.122345 -0.553006 0.047940 255 255 255
-0.123672 -0.553006 0.047940 255 255 255
-0.125000 -0.553006 0.047940 255 255 255
-0.126328 -0.553006 0.047940 255 255 255
-0.127655 -0.553006 0.047940 255 255 255
-0.128983 -0.553006 0.047940 255 255 255
-0.130311 -0.553006 0.047940 255 255 255
-0.131639 -0.553006 0.047940 255 255 255
-0.132966 -0.553006 0.047940 255 255 255
-0.134294 -0.553006 0.047940 255 255 255
-0.135622 -0.553006 0.047940 255 255 255
-0.136949 -0.553006 0.047940 255 255 255
-0.138277 -0.553006 0.047940 255 255 255
-0.139605 -0.553006 0.047940 255 255 255
-0.140932 -0.553006 0.047940 255 255 255
-0.142260 -0.553007 0.047940 255 255 255
-0.143588 -0.553007 0.047940 255 255 255
-0.144916 -0.553007 0.047940 255 255 255
-0.146243 -0.553007 0.047940 255 255 255
-0.147571 -0.553007 0.047940 255 255 255
-0.148899 -0.553007 0.047940 255 255 255
-0.150226 -0.553007 0.047940 255 255 255
-0.151554 -0.553007 0.047940 255 255 255
-0.152882 -0.553007 0.047940 255 255 255
-0.154209 -0.553007 0.047940 255 255 255
-0.156384 -0.557941 0.037489 255 255 255
-0.158573 -0.562547 0.027732 255 255 255
-0.162508 -0.576150 -0.001083 255 255 255
-0.164008 -0.576150 -0.001083 255 255 255
-0.165509 -0.576150 -0.001083 255 255 255
-0.167009 -0.576150 -0.001083 255 255 255
-0.168509 -0.576150 -0.001083 255 255 255
-0.170010 -0.576150 -0.001083 255 255 255
-0.171510 -0.576150 -0.001083 255 255 255
-0.173010 -0.576150 -0.001083 255 255 255
-0.174511 -0.576150 -0.001083 255 255 255
-0.176011 -0.576150 -0.001083 255 255 255
-0.177511 -0.576150 -0.001083 255 255 255
-0.179011 -0.576150 -0.001083 255 255 255
-0.180512 -0.576150 -0.001083 255 255 255
-0.182012 -0.576150 -0.001083 255 255 255
-0.183512 -0.576150 -0.001083 255 255 255
-0.185013 -0.576150 -0.001083 255 255 255
-0.186513 -0.576150 -0.001083 255 255 255
-0.188013 -0.576150 -0.001083 255 255 255
-0.189514 -0.576150 -0.001083 255 255 255
-0.191014 -0.576150 -0.001083 255 255 255
-0.192514 -0.576150 -0.001083 255 255 255
-0.194015 -0.576150 -0.001083 255 255 255
-0.195515 -0.576150 -0.001083 255 255 255
-0.197015 -0.576150 -0.001083 255 255 255
-0.198516 -0.576150 -0.001083 255 255 255
-0.200016 -0.576150 -0.001083 255 255 255
-0.201516 -0.576150 -0.001083 255 255 255
-0.203017 -0.576150 -0.001083 255 255 255
-0.204517 -0.576150 -0.001083 255 255 255
-0.206017 -0.576150 -0.001083 255 255 255
-0.207517 -0.576150 -0.001083 255 255 255
-0.209018 -0.576150 -0.001083 255 255 255
-0.210518 -0.576150 -0.001083 255 255 255
-0.212018 -0.576150 -0.001083 255 255 255
-0.213519 -0.576150 -0.001083 255 255 255
-0.215019 -0.576150 -0.001083 255 255 255
-0.216519 -0.576150 -0.001083 255 255 255
-0.218020 -0.576150 -0.001083 255 255 255
-0.219520 -0.576150 -0.001083 255 255 255
-0.221020 -0.576150 -0.001083 255 255 255
-0.222521 -0.576150 -0.001083 255 255 255
-0.224021 -0.576150 -0.001083 255 255 255
-0.225521 -0.576150 -0.001083 255 255 255
-0.227022 -0.576150 -0.001083 255 255 255
-0.228522 -0.576150 -0.001083 255 255 255
-0.230022 -0.576150 -0.001083 255 255 255
-0.231523 -0.576150 -0.001083 255 255 255
-0.233023 -0.576150 -0.001083 255 255 255
-0.234523 -0.576150 -0.001083 255 255 255
-0.236024 -0.576150 -0.001083 255 255 255
-0.237524 -0.576150 -0.001083 255 255 255
-0.239024 -0.576150 -0.001083 255 255 255
-0.240524 -0.576150 -0.001083 255 255 255
-0.242025 -0.576150 -0.001083 255 255 255
-0.243525 -0.576150 -0.001083 255 255 255
-0.245025 -0.576150 -0.001083 255 255 255
-0.246526 -0.576150 -0.001083 255 255 255
-0.248026 -0.576150 -0.001083 255 255 255
-0.249526 -0.576150 -0.001083 255 255 255
-0.251027 -0.576150 -0.001083 255 255 255
-0.252527 -0.576150 -0.001083 255 255 255
-0.254027 -0.576150 -0.001083 255 255 255
-0.255528 -0.576150 -0.001083 255 255 255
-0.257028 -0.576150 -0.001083 255 255 255
-0.258528 -0.576150 -0.001083 255 255 255
-0.260029 -0.576150 -0.001083 255 255 255
-0.261529 -0.576150 -0.001083 255 255 255
-0.263029 -0.576150 -0.001083 255 255 255
-0.264530 -0.576150 -0.001083 255 255 255
-0.266030 -0.576150 -0.001083 255 255 255
-0.267530 -0.576150 -0.001083 255 255 255
-0.269030 -0.576150 -0.001083 255 255 255
-0.270531 -0.576150 -0.001083 255 255 255
-0.272031 -0.576150 -0.001083 255 255 255
-0.273531 -0.576150 -0.001083 255 255 255
-0.275032 -0.576150 -0.001083 255 255 255
-0.276532 -0.576150 -0.001083 255 255 255
-0.278032 -0.576150 -0.001083 255 255 255
-0.279533 -0.576150 -0.001083 255 255 255
-0.281033 -0.576150 -0.001083 255 255 255
-0.282533 -0.576150 -0.001083 255 255 255
-0.284034 -0.576150 -0.001083 255 255 255
-0.285534 -0.576150 -0.001083 255 255 255
-0.287034 -0.576150 -0.001083 255 255 255
-0.288535 -0.576150 -0.001083 255 255 255
-0.290035 -0.576150 -0.001083 255 255 255
-0.291535 -0.576150 -0.001083 255 255 255
-0.293036 -0.576150 -0.001083 255 255 255
-0.294536 -0.576150 -0.001083 255 255 255
-0.296036 -0.576150 -0.001083 255 255 255
-0.297536 -0.576150 -0.001083 255 255 255
-0.299037 -0.576150 -0.001083 255 255 255
-0.300537 -0.576150 -0.001083 255 255 255
-0.302037 -0.576150 -0.001083 255 255 255
-0.303538 -0.576150 -0.001083 255 255 255
-0.305038 -0.576150 -0.001083 255 255 255
-0.306538 -0.576150 -0.001083 255 255 255
-0.308039 -0.576150 -0.001083 255 255 255
-0.309539 -0.576150 -0.001083 255 255 255
-0.311039 -0.576150 -0.001083 255 255 255
-0.312540 -0.576150 -0.001083 255 255 255
-0.314040 -0.576150 -0.001083 255 255 255
-0.315540 -0.576150 -0.001083 255 255 255
-0.317041 -0.576150 -0.001083 255 255 255
0.065370 -0.574523 -0.001092 255 255 255
0.063871 -0.574523 -0.001092 255 255 255
0.062372 -0.574523 -0.001092 255 255 255
0.060874 -0.574523 -0.001092 255 255 255
0.059375 -0.574523 -0.001092 255 255 255
0.057876 -0.574523 -0.001092 255 255 255
0.056377 -0.574523 -0.001092 255 255 255
0.054878 -0.574523 -0.001092 255 255 255
0.053379 -0.574523 -0.001092 255 255 255
0.051880 -0.574523 -0.001092 255 255 255
0.050381 -0.574523 -0.001092 255 255 255
0.048882 -0.574523 -0.001092 255 255 255
0.047383 -0.574523 -0.001092 255 255 255
0.045884 -0.574523 -0.001092 255 255 255
0.044385 -0.574523 -0.001092 255 255 255
0.042886 -0.574523 -0.001092 255 255 255
0.041387 -0.574523 -0.001092 255 255 255
0.039888 -0.574523 -0.001092 255 255 255
0.038389 -0.574523 -0.001092 255 255 255
0.036890 -0.574523 -0.001092 255 255 255
0.035391 -0.574523 -0.001092 255 255 255
0.033892 -0.574523 -0.001092 255 255 255
0.032393 -0.574523 -0.001092 255 255 255
0.030894 -0.574523 -0.001092 255 255 255
0.029395 -0.574523 -0.001092 255 255 255
0.027896 -0.574523 -0.001092 255 255 255
0.026397 -0.574523 -0.001092 255 255 255
0.024898 -0.574523 -0.001092 255 255 255
0.023399 -0.574523 -0.001092 255 255 255
0.021900 -0.574523 -0.001092 255 255 255
0.020401 -0.574523 -0.001092 255 255 255
0.018902 -0.574523 -0.001092 255 255 255
0.017403 -0.574523 -0.001092 255 255 255
0.015904 -0.574523 -0.001092 255 255 255
0.014405 -0.574523 -0.001092 255 255 255
0.012906 -0.574523 -0.001092 255 255 255
0.011407 -0.574523 -0.001092 255 255 255
0.009908 -0.574523 -0.001092 255 255 255
0.008409 -0.574523 -0.001092 255 255 255
0.006910 -0.574523 -0.001092 255 255 255
0.005411 -0.574523 -0.001092 255 255 255
0.003912 -0.574523 -0.001092 255 255 255
0.002413 -0.574523 -0.001092 255 255 255
0.000914 -0.574523 -0.001092 255 255 255
-0.000585 -0.574523 -0.001092 255 255 255
-0.002084 -0.574523 -0.001092 255 255 255
-0.003583 -0.574523 -0.001092 255 255 255
-0.005082 -0.574523 -0.001092 255 255 255
-0.006581 -0.574523 -0.001092 255 255 255
-0.008080 -0.574523 -0.001092 255 255 255
-0.009579 -0.574523 -0.001092 255 255 255
-0.011078 -0.574523 -0.001092 255 255 255
-0.012577 -0.574523 -0.001092 255 255 255
-0.014076 -0.574523 -0.001092 255 255 255
-0.015575 -0.574523 -0.001092 255 255 255
-0.017073 -0.574523 -0.001092 255 255 255
-0.018572 -0.574523 -0.001092 255 255 255
-0.020071 -0.574523 -0.001092 255 255 255
-0.021570 -0.574523 -0.001092 255 255 255
-0.023069 -0.574523 -0.001092 255 255 255
-0.024568 -0.574523 -0.001092 255 255 255
-0.026067 -0.574523 -0.001092 255 255 255
-0.027566 -0.574523 -0.001092 255 255 255
-0.029065 -0.574523 -0.001092 255 255 255
-0.030564 -0.574523 -0.001092 255 255 255
-0.032063 -0.574523 -0.001092 255 255 255
-0.033562 -0.574523 -0.001092 255 255 255
-0.035061 -0.574523 -0.001092 255 255 255
-0.036560 -0.574523 -0.001092 255 255 255
-0.038059 -0.574523 -0.001092 255 255 255
-0.039558 -0.574523 -0.001092 255 255 255
-0.041057 -0.574523 -0.001092 255 255 255
-0.042556 -0.574523 -0.001092 255 255 255
-0.044055 -0.574523 -0.001092 255 255 255
-0.045554 -0.574523 -0.001092 255 255 255
-0.047053 -0.574523 -0.001092 255 255 255
-0.048552 -0.574523 -0.001092 255 255 255
-0.050051 -0.574523 -0.001092 255 255 255
-0.051550 -0.574523 -0.001092 255 255 255
-0.053049 -0.574523 -0.001092 255 255 255
-0.054548 -0.574523 -0.001092 255 255 255
-0.056047 -0.574523 -0.001092 255 255 255
-0.057546 -0.574523 -0.001092 255 255 255
-0.059045 -0.574523 -0.001092 255 255 255
-0.060544 -0.574523 -0.001092 255 255 255
-0.062043 -0.574523 -0.001092 255 255 255
-0.063542 -0.574523 -0.001092 255 255 255
-0.065041 -0.574523 -0.001092 255 255 255
-0.066540 -0.574523 -0.001092 255 255 255
-0.068039 -0.574523 -0.001092 255 255 255
-0.069538 -0.574523 -0.001092 255 255 255
-0.071037 -0.574523 -0.001092 255 255 255
-0.072536 -0.574523 -0.001092 255 255 255
-0.074035 -0.574523 -0.001092 255 255 255
-0.075534 -0.574523 -0.001092 255 255 255
-0.077033 -0.574523 -0.001092 255 255 255
-0.078532 -0.574523 -0.001092 255 255 255
-0.080031 -0.574523 -0.001092 255 255 255
-0.081530 -0.574523 -0.001092 255 255 255
-0.083029 -0.574523 -0.001092 255 255 255
-0.084528 -0.574523 -0.001092 255 255 255
-0.086027 -0.574523 -0.001092 255 255 255
-0.087526 -0.574523 -0.001092 255 255 255
-0.089025 -0.574523 -0.001092 255 255 255
-0.090524 -0.574523 -0.001092 255 255 255
-0.092023 -0.574523 -0.001092 255 255 255
-0.093521 -0.574523 -0.001092 255 255 255
-0.095020 -0.574523 -0.001092 255 255 255
-0.099796 -0.551567 0.047932 255 255 255
-0.101123 -0.551567 0.047932 255 255 255
-0.102449 -0.551567 0.047932 255 255 255
-0.103776 -0.551567 0.047932 255 255 255
-0.105102 -0.551567 0.047932 255 255 255
-0.106429 -0.551567 0.047932 255 255 255
-0.107755 -0.551567 0.047932 255 255 255
-0.109082 -0.551567 0.047932 255 255 255
-0.110408 -0.551567 0.047932 255 255 255
-0.111735 -0.551567 0.047932 255 255 255
-0.113061 -0.551567 0.047932 255 255 255
-0.114388 -0.551567 0.047932 255 255 255
-0.115714 -0.551567 0.047932 255 255 255
-0.117041 -0.551567 0.047932 255 255 255
-0.118368 -0.551567 0.047932 255 255 255
-0.119694 -0.551567 0.047932 255 255 255
-0.121021 -0.551567 0.047932 255 255 255
-0.122347 -0.551567 0.047932 255 255 255
-0.123674 -0.551567 0.047932 255 255 255
-0.125000 -0.551567 0.047932 255 255 255
-0.126327 -0.551567 0.047932 255 255 255
-0.127653 -0.551567 0.047932 255 255 255
-0.128980 -0.551567 0.047932 255 255 255
-0.130306 -0.551567 0.047932 255 255 255
-0.131633 -0.551567 0.047932 255 255 255
-0.132959 -0.551567 0.047932 255 255 255
-0.134286 -0.551567 0.047932 255 255 255
-0.135612 -0.551567 0.047932 255 255 255
-0.136939 -0.551567 0.047932 255 255 255
-0.138265 -0.551567 0.047932 255 255 255
-0.139592 -0.551567 0.047932 255 255 255
-0.140918 -0.551567 0.047932 255 255 255
-0.142245 -0.551567 0.047932 255 255 255
-0.143571 -0.551567 0.047932 255 255 255
-0.144898 -0.551567 0.047932 255 255 255
-0.146224 -0.551567 0.047932 255 255 255
-0.147551 -0.551567 0.047932 255 255 255
-0.148877 -0.551567 0.047932 255 255 255
-0.150204 -0.551567 0.047932 255 255 255
-0.151530 -0.551567 0.047932 255 255 255
-0.152857 -0.551567 0.047932 255 255 255
-0.154620 -0.554206 0.042297 255 255 255
-0.156734 -0.558653 0.032799 255 255 255
-0.158853 -0.562751 0.024048 255 255 255
-0.162475 -0.574523 -0.001092 255 255 255
-0.163974 -0.574523 -0.001092 255 255 255
-0.165473 -0.574523 -0.001092 255 255 255
-0.166972 -0.574523 -0.001092 255 255 255
-0.168471 -0.574523 -0.001092 255 255 255
-0.169970 -0.574523 -0.001092 255 255 255
-0.171468 -0.574523 -0.001092 255 255 255
-0.172967 -0.574523 -0.001092 255 255 255
-0.174466 -0.574523 -0.001092 255 255 255
-0.175965 -0.574523 -0.001092 255 255 255
-0.177464 -0.574523 -0.001092 255 255 255
-0.178963 -0.574523 -0.001092 255 255 255
-0.180462 -0.574523 -0.001092 255 255 255
-0.181961 -0.574523 -0.001092 255 255 255
-0.183460 -0.574523 -0.001092 255 255 255
-0.184959 -0.574523 -0.001092 255 255 255
-0.186458 -0.574523 -0.001092 255 255 255
-0.187957 -0.574523 -0.001092 255 255 255
-0.189456 -0.574523 -0.001092 255 255 255
-0.190955 -0.574523 -0.001092 255 255 255
-0.192454 -0.574523 -0.001092 255 255 255
-0.193953 -0.574523 -0.001092 255 255 255
-0.195452 -0.574523 -0.001092 255 255 255
-0.196951 -0.574523 -0.001092 255 255 255
-0.198450 -0.574523 -0.001092 255 255 255
-0.199949 -0.574523 -0.001092 255 255 255
-0.201448 -0.574523 -0.001092 255 255 255
-0.202947 -0.574523 -0.001092 255 255 255
-0.204446 -0.574523 -0.001092 255 255 255
-0.205945 -0.574523 -0.001092 255 255 255
-0.207444 -0.574523 -0.001092 255 255 255
-0.208943 -0.574523 -0.001092 255 255 255
-0.210442 -0.574523 -0.001092 255 255 255
-0.211941 -0.574523 -0.001092 255 255 255
-0.213440 -0.574523 -0.001092 255 255 255
-0.214939 -0.574523 -0.001092 255 255 255
-0.216438 -0.574523 -0.001092 255 255 255
-0.217937 -0.574523 -0.001092 255 255 255
-0.219436 -0.574523 -0.001092 255 255 255
-0.220935 -0.574523 -0.001092 255 255 255
-0.222434 -0.574523 -0.001092 255 255 255
-0.223933 -0.574523 -0.001092 255 255 255
-0.225432 -0.574523 -0.001092 255 255 255
-0.226931 -0.574523 -0.001092 255 255 255
-0.228430 -0.574523 -0.001092 255 255 255
-0.229929 -0.574523 -0.001092 255 255 255
-0.231428 -0.574523 -0.001092 255 255 255
-0.232927 -0.574523 -0.001092 255 255 255
-0.234426 -0.574523 -0.001092 255 255 255
-0.235925 -0.574523 -0.001092 255 255 255
-0.237424 -0.574523 -0.001092 255 255 255
-0.238923 -0.574523 -0.001092 255 255 255
-0.240422 -0.574523 -0.001092 255 255 255
-0.241921 -0.574523 -0.001092 255 255 255
-0.243420 -0.574523 -0.001092 255 255 255
-0.244919 -0.574523 -0.001092 255 255 255
-0.246418 -0.574523 -0.001092 255 255 255
-0.247917 -0.574523 -0.001092 255 255 255
-0.249415 -0.574523 -0.001092 255 255 255
-0.250914 -0.574523 -0.001092 255 255 255
-0.252413 -0.574523 -0.001092 255 255 255
-0.253912 -0.574523 -0.001092 255 255 255
-0.255411 -0.574523 -0.001092 255 255 255
-0.256910 -0.574523 -0.001092 255 255 255
-0.258409 -0.574523 -0.001092 255 255 255
-0.259908 -0.574523 -0.001092 255 255 255
-0.261407 -0.574523 -0.001092 255 255 255
-0.262906 -0.574523 -0.001092 255 255 255
-0.264405 -0.574523 -0.001092 255 255 255
-0.265904 -0.574523 -0.001092 255 255 255
-0.267403 -0.574523 -0.001092 255 255 255
-0.268902 -0.574523 -0.001092 255 255 255
-0.270401 -0.574523 -0.001092 255 255 255
-0.271900 -0.574523 -0.001092 255 255 255
-0.273399 -0.574523 -0.001092 255 255 255
-0.274898 -0.574523 -0.001092 255 255 255
-0.276397 -0.574523 -0.001092 255 255 255
-0.277896 -0.574523 -0.001092 255 255 255
-0.279395 -0.574523 -0.001092 255 255 255
-0.280894 -0.574523 -0.001092 255 255 255
-0.282393 -0.574523 -0.001092 255 255 255
-0.283892 -0.574523 -0.001092 255 255 255
-0.285391 -0.574523 -0.001092 255 255 255
-0.286890 -0.574523 -0.001092 255 255 255
-0.288389 -0.574523 -0.001092 255 255 255
-0.289888 -0.574523 -0.001092 255 255 255
-0.291387 -0.574523 -0.001092 255 255 255
-0.292886 -0.574523 -0.001092 255 255 255
